14.88889 12.12908 2.686275
15.11111 12.12908 2.647059
16.66666 12.12908 2.647059
17.77778 12.12908 2.647059
18 12.12908 2.647059
18.22222 12.12908 2.647059
18.44444 12.12908 2.686275
18.66666 12.12908 2.686275
18.88889 12.12908 2.686275
19.11111 12.12908 2.647059
19.33334 12.12908 2.647059
19.55556 12.12908 2.686275
19.77778 12.12908 2.686275
20 12.12908 2.686275
20.22222 12.12908 2.686275
20.44444 12.12908 2.686275
20.66666 12.12908 2.686275
20.88889 12.12908 2.686275
21.11111 12.12908 2.686275
21.33334 12.12908 2.686275
21.55556 12.12908 2.686275
21.77778 12.12908 2.72549
22 12.12908 2.72549
22.22222 12.12908 2.764706
22.44444 12.12908 2.72549
22.66666 12.12908 2.686275
22.88889 12.12908 2.686275
23.11111 12.12908 2.686275
23.33334 12.12908 2.686275
23.55556 12.12908 2.686275
23.77778 12.12908 2.686275
24 12.12908 2.647059
24.22222 12.12908 2.647059
24.44444 12.12908 2.647059
26.66666 12.12908 2.72549
26.88889 12.12908 2.686275
28.44444 12.12908 2.686275
31.77778 12.12908 2.72549
32 12.12908 2.72549
32.22222 12.12908 2.72549
32.44444 12.12908 2.72549
32.66666 12.12908 2.72549
32.88889 12.12908 2.72549
33.11111 12.12908 2.72549
33.33334 12.12908 2.72549
33.55556 12.12908 2.803922
33.77778 12.12908 2.803922
34 12.12908 2.764706
34.22222 12.12908 2.803922
34.44444 12.12908 2.843137
34.66666 12.12908 2.803922
34.88889 12.12908 2.764706
35.11111 12.12908 2.803922
35.33334 12.12908 2.764706
35.55556 12.12908 2.72549
35.77778 12.12908 2.764706
36 12.12908 2.764706
36.22222 12.12908 2.764706
36.44444 12.12908 2.764706
36.66666 12.12908 2.764706
36.88889 12.12908 2.764706
37.11111 12.12908 2.764706
37.33334 12.12908 2.72549
37.55556 12.12908 2.764706
37.77778 12.12908 2.764706
38 12.12908 2.764706
38.22222 12.12908 2.764706
38.44444 12.12908 2.764706
38.66666 12.12908 2.803922
38.88889 12.12908 2.803922
39.11111 12.12908 2.72549
39.33334 12.12908 2.686275
39.55556 12.12908 2.647059
39.77778 12.12908 2.686275
40 12.12908 2.686275
40.22222 12.12908 2.647059
40.44444 12.12908 2.647059
40.66666 12.12908 2.607843
41.77778 12.12908 2.686275
42 12.12908 2.686275
42.22222 12.12908 2.764706
42.44444 12.12908 2.803922
42.66666 12.12908 2.803922
42.88889 12.12908 2.882353
43.11111 12.12908 2.960784
43.33334 12.12908 3
43.55556 12.12908 3.078431
43.77778 12.12908 3.117647
44 12.12908 3.156863
44.22222 12.12908 3.235294
44.44444 12.12908 3.235294
44.66666 12.12908 3.274509
44.88889 12.12908 3.235294
45.11111 12.12908 3.235294
45.33334 12.12908 3.196078
45.55556 12.12908 3.196078
45.77778 12.12908 3.196078
46 12.12908 3.156863
46.22222 12.12908 3.078431
46.44444 12.12908 3.039216
46.66666 12.12908 3.078431
46.88889 12.12908 2.960784
47.11111 12.12908 2.960784
47.33334 12.12908 2.843137
47.55556 12.12908 2.882353
47.77778 12.12908 2.803922
48 12.12908 2.72549
48.22222 12.12908 2.72549
48.44444 12.12908 2.686275
48.66666 12.12908 2.72549
48.88889 12.12908 2.647059
49.11111 12.12908 2.607843
49.33334 12.12908 2.607843
49.55556 12.12908 2.529412
49.77778 12.12908 2.490196
50 12.12908 2.45098
50.22222 12.12908 -5
-50 12.35163 -5
-48.88889 12.35163 3.117647
-45.33333 12.35163 3.078431
-43.55556 12.35163 3.117647
-41.55556 12.35163 3.078431
-41.33333 12.35163 3
-40.44444 12.35163 2.960784
-40.22222 12.35163 2.960784
-40 12.35163 2.960784
-39.77778 12.35163 2.960784
-39.55556 12.35163 2.960784
-38.66667 12.35163 3
-37.55556 12.35163 3
-33.11111 12.35163 2.960784
-32.88889 12.35163 2.921568
-32.66666 12.35163 2.921568
-32.44444 12.35163 2.921568
-32.22222 12.35163 2.921568
-32 12.35163 3
-31.77778 12.35163 3
-31.55556 12.35163 3
-31.33333 12.35163 3
-31.11111 12.35163 2.960784
-30.88889 12.35163 2.960784
-30.66667 12.35163 2.960784
-30.44444 12.35163 2.960784
-30.22222 12.35163 2.960784
-28.88889 12.35163 2.921568
-26.44444 12.35163 2.921568
-21.55556 12.35163 2.882353
-21.33333 12.35163 2.843137
-21.11111 12.35163 2.843137
-17.55556 12.35163 2.843137
-16 12.35163 2.843137
-15.77778 12.35163 2.843137
-14.88889 12.35163 2.803922
-14.66667 12.35163 2.803922
-14.44444 12.35163 2.764706
-14.22222 12.35163 2.764706
-14 12.35163 2.803922
-11.55556 12.35163 2.803922
-11.33333 12.35163 2.803922
-11.11111 12.35163 2.803922
-10.88889 12.35163 2.803922
-10.66667 12.35163 2.803922
-10.44444 12.35163 2.803922
-10.22222 12.35163 2.803922
-10 12.35163 2.764706
-9.777779 12.35163 2.764706
-8.888889 12.35163 2.803922
-7.333332 12.35163 2.764706
-7.111111 12.35163 2.764706
-6.888889 12.35163 2.764706
-6.666668 12.35163 2.764706
-6.444443 12.35163 2.764706
-6.222221 12.35163 2.764706
-6 12.35163 2.803922
-5.777779 12.35163 2.803922
-5.555557 12.35163 2.803922
-5.333332 12.35163 2.764706
-5.111111 12.35163 2.764706
-4.888889 12.35163 2.764706
-4.666668 12.35163 2.72549
-4.444443 12.35163 2.72549
-4.222221 12.35163 2.764706
-4 12.35163 2.72549
-3.777779 12.35163 2.72549
-3.555557 12.35163 2.764706
-3.333332 12.35163 2.764706
-3.111111 12.35163 2.764706
-2.888889 12.35163 2.098039
-2.666668 12.35163 1.509804
-2.444443 12.35163 -0.05882359
-2.222221 12.35163 -0.4901962
-2 12.35163 -0.5294118
-1.777779 12.35163 -0.5294118
-1.555557 12.35163 -0.4509802
-1.333332 12.35163 0.8039217
-1.111111 12.35163 3
-0.8888893 12.35163 3.274509
-0.6666679 12.35163 2.72549
-0.4444427 12.35163 1.392157
-0.2222214 12.35163 0.7254901
0 12.35163 0.647059
0.2222214 12.35163 0.2941175
0.4444427 12.35163 -0.4117646
0.6666679 12.35163 -0.8431373
0.8888893 12.35163 -0.8039217
1.111111 12.35163 -0.7647057
1.333332 12.35163 -0.7647057
1.555557 12.35163 -0.647059
1.777779 12.35163 0.8823528
2 12.35163 2.882353
2.222221 12.35163 2.72549
2.444443 12.35163 2.686275
2.666668 12.35163 2.686275
2.888889 12.35163 2.686275
5.555557 12.35163 2.686275
5.777779 12.35163 2.686275
6 12.35163 2.647059
6.222221 12.35163 2.647059
6.444443 12.35163 2.647059
6.666668 12.35163 2.647059
7.555557 12.35163 2.568627
7.777779 12.35163 2.568627
8 12.35163 2.568627
8.222221 12.35163 2.568627
8.444443 12.35163 2.568627
8.666668 12.35163 2.568627
8.888889 12.35163 2.607843
9.111111 12.35163 2.568627
9.333332 12.35163 2.607843
9.555557 12.35163 2.607843
9.777779 12.35163 2.607843
10 12.35163 2.607843
10.22222 12.35163 2.647059
10.44444 12.35163 2.647059
10.66667 12.35163 2.647059
10.88889 12.35163 2.607843
11.11111 12.35163 2.607843
12 12.35163 2.568627
12.22222 12.35163 2.568627
12.44444 12.35163 2.529412
12.66667 12.35163 2.607843
12.88889 12.35163 2.607843
13.11111 12.35163 2.803922
13.33333 12.35163 1.941176
13.55556 12.35163 2.45098
13.77778 12.35163 2.607843
14 12.35163 2.647059
14.22222 12.35163 2.607843
14.44444 12.35163 2.529412
14.66666 12.35163 2.647059
14.88889 12.35163 2.607843
15.11111 12.35163 2.607843
16.66666 12.35163 2.607843
17.77778 12.35163 2.647059
18 12.35163 2.647059
18.22222 12.35163 2.686275
18.44444 12.35163 2.647059
18.66666 12.35163 2.686275
18.88889 12.35163 2.686275
19.11111 12.35163 2.72549
19.33334 12.35163 2.72549
19.55556 12.35163 2.764706
19.77778 12.35163 2.72549
20 12.35163 2.72549
20.22222 12.35163 2.686275
20.44444 12.35163 2.686275
20.66666 12.35163 2.686275
20.88889 12.35163 2.686275
21.11111 12.35163 2.686275
21.33334 12.35163 2.764706
21.55556 12.35163 2.72549
21.77778 12.35163 2.72549
22 12.35163 2.72549
22.22222 12.35163 2.72549
22.44444 12.35163 2.72549
22.66666 12.35163 2.686275
22.88889 12.35163 2.686275
23.11111 12.35163 2.686275
23.33334 12.35163 2.686275
23.55556 12.35163 2.647059
23.77778 12.35163 2.647059
24 12.35163 2.647059
24.22222 12.35163 2.647059
24.44444 12.35163 2.647059
28.44444 12.35163 2.686275
28.66666 12.35163 2.686275
28.88889 12.35163 2.72549
29.11111 12.35163 2.72549
31.77778 12.35163 2.72549
32 12.35163 2.72549
32.22222 12.35163 2.72549
32.44444 12.35163 2.686275
32.66666 12.35163 2.686275
32.88889 12.35163 2.686275
33.11111 12.35163 2.72549
33.33334 12.35163 2.72549
33.55556 12.35163 2.764706
33.77778 12.35163 2.764706
34 12.35163 2.764706
34.22222 12.35163 2.764706
34.44444 12.35163 2.764706
34.66666 12.35163 2.764706
34.88889 12.35163 2.72549
35.11111 12.35163 2.72549
35.33334 12.35163 2.686275
35.55556 12.35163 2.647059
35.77778 12.35163 2.647059
36 12.35163 2.647059
36.22222 12.35163 2.647059
36.44444 12.35163 2.647059
36.66666 12.35163 2.647059
36.88889 12.35163 2.607843
37.11111 12.35163 2.607843
37.33334 12.35163 2.607843
37.55556 12.35163 2.647059
37.77778 12.35163 2.686275
38 12.35163 2.72549
38.22222 12.35163 2.686275
38.44444 12.35163 2.686275
38.66666 12.35163 2.686275
38.88889 12.35163 2.686275
39.11111 12.35163 2.686275
39.33334 12.35163 2.72549
39.55556 12.35163 2.686275
39.77778 12.35163 2.647059
40 12.35163 2.647059
40.22222 12.35163 2.607843
40.44444 12.35163 2.607843
40.66666 12.35163 2.607843
41.77778 12.35163 2.686275
42 12.35163 2.686275
42.22222 12.35163 2.72549
42.44444 12.35163 2.803922
42.66666 12.35163 2.803922
42.88889 12.35163 2.882353
43.11111 12.35163 3
43.33334 12.35163 3.039216
43.55556 12.35163 3.156863
43.77778 12.35163 3.235294
44 12.35163 3.196078
44.22222 12.35163 3.196078
44.44444 12.35163 3.235294
44.66666 12.35163 3.235294
44.88889 12.35163 3.235294
45.11111 12.35163 3.313725
45.33334 12.35163 3.196078
45.55556 12.35163 3.196078
45.77778 12.35163 3.156863
46 12.35163 3.156863
46.22222 12.35163 3.078431
46.44444 12.35163 3.039216
46.66666 12.35163 3.039216
46.88889 12.35163 2.960784
47.11111 12.35163 2.921568
47.33334 12.35163 2.882353
47.55556 12.35163 2.843137
47.77778 12.35163 2.803922
48 12.35163 2.72549
48.22222 12.35163 2.72549
48.44444 12.35163 2.686275
48.66666 12.35163 2.686275
48.88889 12.35163 2.607843
49.11111 12.35163 2.607843
49.33334 12.35163 2.607843
49.55556 12.35163 2.529412
49.77778 12.35163 2.490196
50 12.35163 2.45098
50.22222 12.35163 -5
-50 12.57418 -5
-48.88889 12.57418 3.156863
-45.77778 12.57418 3.078431
-43.55556 12.57418 3.117647
-41.55556 12.57418 3.039216
-41.33333 12.57418 3
-41.11111 12.57418 3.039216
-40.88889 12.57418 3
-40.66667 12.57418 3
-40.44444 12.57418 2.960784
-39.55556 12.57418 3
-39.33333 12.57418 2.960784
-39.11111 12.57418 3
-38.88889 12.57418 3
-38.66667 12.57418 3
-37.55556 12.57418 2.960784
-37.33333 12.57418 2.960784
-37.11111 12.57418 2.960784
-36.88889 12.57418 2.960784
-36.66667 12.57418 2.960784
-36.44444 12.57418 2.960784
-36.22222 12.57418 2.960784
-36 12.57418 2.960784
-35.77778 12.57418 2.960784
-35.55556 12.57418 2.960784
-35.33333 12.57418 2.960784
-35.11111 12.57418 2.960784
-34.88889 12.57418 2.960784
-34.66667 12.57418 2.960784
-34.44444 12.57418 2.960784
-34.22222 12.57418 2.960784
-34 12.57418 2.960784
-33.77778 12.57418 2.960784
-33.55556 12.57418 2.960784
-33.33334 12.57418 2.960784
-33.11111 12.57418 2.960784
-32.88889 12.57418 2.921568
-32.66666 12.57418 2.960784
-32.44444 12.57418 2.921568
-32.22222 12.57418 2.960784
-32 12.57418 2.960784
-31.77778 12.57418 2.960784
-31.55556 12.57418 3
-31.33333 12.57418 3
-31.11111 12.57418 2.960784
-30.88889 12.57418 2.921568
-30.66667 12.57418 2.960784
-30.44444 12.57418 2.960784
-30.22222 12.57418 2.921568
-28.88889 12.57418 2.921568
-26.44444 12.57418 2.921568
-21.55556 12.57418 2.882353
-21.33333 12.57418 2.843137
-17.55556 12.57418 2.843137
-16 12.57418 2.843137
-15.77778 12.57418 2.843137
-14.88889 12.57418 2.843137
-14.66667 12.57418 2.843137
-14.44444 12.57418 2.843137
-14.22222 12.57418 2.803922
-14 12.57418 2.803922
-13.77778 12.57418 2.803922
-11.55556 12.57418 2.764706
-11.33333 12.57418 2.803922
-11.11111 12.57418 2.803922
-10.88889 12.57418 2.803922
-10.66667 12.57418 2.803922
-10.44444 12.57418 2.803922
-10.22222 12.57418 2.803922
-10 12.57418 2.764706
-9.777779 12.57418 2.764706
-8.888889 12.57418 2.764706
-7.333332 12.57418 2.803922
-7.111111 12.57418 2.803922
-6.888889 12.57418 2.803922
-6.666668 12.57418 2.803922
-6.444443 12.57418 2.803922
-6.222221 12.57418 2.803922
-6 12.57418 2.764706
-5.777779 12.57418 2.803922
-5.555557 12.57418 2.803922
-5.333332 12.57418 2.803922
-5.111111 12.57418 2.803922
-4.888889 12.57418 2.803922
-4.666668 12.57418 2.764706
-4.444443 12.57418 2.764706
-4.222221 12.57418 2.764706
-4 12.57418 2.764706
-3.777779 12.57418 2.764706
-3.555557 12.57418 2.72549
-3.333332 12.57418 2.72549
-3.111111 12.57418 2.686275
-2.888889 12.57418 1.313725
-2.666668 12.57418 0.2941175
-2.444443 12.57418 -0.5686274
-2.222221 12.57418 -0.5686274
-2 12.57418 -0.5686274
-1.777779 12.57418 -0.5294118
-1.555557 12.57418 -0.3725491
-1.333332 12.57418 -0.01960802
-1.111111 12.57418 0.2549019
-0.8888893 12.57418 0.7647057
-0.6666679 12.57418 0.7254901
-0.4444427 12.57418 0.1764708
-0.2222214 12.57418 -0.1764708
0 12.57418 -0.4117646
0.2222214 12.57418 -0.7254901
0.4444427 12.57418 -0.8039217
0.6666679 12.57418 -0.8039217
0.8888893 12.57418 -0.8039217
1.111111 12.57418 -0.7647057
1.333332 12.57418 -0.8431373
1.555557 12.57418 -0.7647057
1.777779 12.57418 -0.7647057
2 12.57418 2.490196
2.222221 12.57418 2.686275
2.444443 12.57418 2.647059
2.666668 12.57418 2.647059
2.888889 12.57418 2.647059
4.222221 12.57418 2.647059
4.444443 12.57418 2.647059
4.666668 12.57418 2.647059
4.888889 12.57418 2.647059
5.111111 12.57418 2.686275
5.333332 12.57418 2.72549
5.555557 12.57418 2.72549
5.777779 12.57418 2.686275
6 12.57418 2.72549
6.222221 12.57418 2.647059
6.444443 12.57418 2.686275
6.666668 12.57418 2.647059
6.888889 12.57418 2.607843
7.111111 12.57418 2.607843
7.333332 12.57418 2.568627
7.555557 12.57418 2.568627
7.777779 12.57418 2.568627
8 12.57418 2.529412
8.222221 12.57418 2.529412
8.444443 12.57418 2.568627
8.666668 12.57418 2.529412
8.888889 12.57418 2.529412
9.111111 12.57418 2.607843
9.333332 12.57418 2.647059
9.555557 12.57418 2.647059
9.777779 12.57418 2.607843
10 12.57418 2.647059
10.22222 12.57418 2.647059
10.44444 12.57418 2.647059
10.66667 12.57418 2.607843
10.88889 12.57418 2.568627
11.11111 12.57418 2.568627
12 12.57418 2.568627
12.22222 12.57418 2.568627
12.44444 12.57418 2.490196
12.66667 12.57418 2.529412
12.88889 12.57418 2.568627
13.11111 12.57418 2.568627
13.33333 12.57418 1.745098
13.55556 12.57418 1.901961
13.77778 12.57418 2.72549
14 12.57418 2.607843
14.22222 12.57418 2.607843
14.44444 12.57418 2.607843
14.66666 12.57418 2.607843
14.88889 12.57418 2.568627
15.11111 12.57418 2.568627
15.33334 12.57418 2.568627
15.55556 12.57418 2.607843
15.77778 12.57418 2.568627
16 12.57418 2.568627
16.22222 12.57418 2.568627
16.44444 12.57418 2.568627
16.66666 12.57418 2.568627
17.77778 12.57418 2.647059
18 12.57418 2.647059
18.22222 12.57418 2.647059
18.44444 12.57418 2.647059
18.66666 12.57418 2.647059
18.88889 12.57418 2.686275
19.11111 12.57418 2.72549
19.33334 12.57418 2.72549
19.55556 12.57418 2.72549
19.77778 12.57418 2.72549
20 12.57418 2.72549
20.22222 12.57418 2.686275
20.44444 12.57418 2.686275
20.66666 12.57418 2.647059
20.88889 12.57418 2.686275
21.11111 12.57418 2.686275
21.33334 12.57418 2.686275
21.55556 12.57418 2.647059
21.77778 12.57418 2.686275
22 12.57418 2.72549
22.22222 12.57418 2.72549
22.44444 12.57418 2.686275
22.66666 12.57418 2.686275
22.88889 12.57418 2.686275
23.11111 12.57418 2.647059
23.33334 12.57418 2.647059
23.55556 12.57418 2.686275
23.77778 12.57418 2.686275
24 12.57418 2.686275
24.22222 12.57418 2.686275
24.44444 12.57418 2.686275
24.66666 12.57418 2.686275
24.88889 12.57418 2.686275
25.11111 12.57418 2.686275
25.33334 12.57418 2.686275
25.55556 12.57418 2.686275
25.77778 12.57418 2.647059
27.55556 12.57418 2.686275
27.77778 12.57418 2.686275
28 12.57418 2.686275
28.22222 12.57418 2.686275
28.44444 12.57418 2.647059
28.66666 12.57418 2.686275
28.88889 12.57418 2.72549
29.11111 12.57418 2.764706
31.77778 12.57418 2.72549
32 12.57418 2.686275
32.22222 12.57418 2.686275
32.44444 12.57418 2.686275
32.66666 12.57418 2.686275
32.88889 12.57418 2.647059
33.11111 12.57418 2.647059
33.33334 12.57418 2.647059
33.55556 12.57418 2.686275
33.77778 12.57418 2.686275
34 12.57418 2.72549
34.22222 12.57418 2.72549
34.44444 12.57418 2.72549
34.66666 12.57418 2.72549
34.88889 12.57418 2.686275
35.11111 12.57418 2.72549
35.33334 12.57418 2.647059
35.55556 12.57418 2.607843
35.77778 12.57418 2.647059
36 12.57418 2.647059
36.22222 12.57418 2.647059
36.44444 12.57418 2.607843
36.66666 12.57418 2.647059
36.88889 12.57418 2.647059
37.11111 12.57418 2.647059
37.33334 12.57418 2.647059
37.55556 12.57418 2.647059
37.77778 12.57418 2.647059
38 12.57418 2.647059
38.22222 12.57418 2.647059
38.44444 12.57418 2.647059
38.66666 12.57418 2.647059
38.88889 12.57418 2.647059
39.11111 12.57418 2.647059
39.33334 12.57418 2.607843
39.55556 12.57418 2.607843
39.77778 12.57418 2.607843
40 12.57418 2.607843
40.22222 12.57418 2.568627
40.44444 12.57418 2.607843
40.66666 12.57418 2.568627
41.77778 12.57418 2.647059
42 12.57418 2.72549
42.22222 12.57418 2.72549
42.44444 12.57418 2.803922
42.66666 12.57418 2.882353
42.88889 12.57418 3
43.11111 12.57418 3.039216
43.33334 12.57418 3.117647
43.55556 12.57418 3.156863
43.77778 12.57418 3.196078
44 12.57418 3.235294
44.22222 12.57418 3.235294
44.44444 12.57418 3.235294
44.66666 12.57418 3.235294
44.88889 12.57418 3.313725
45.11111 12.57418 3.235294
45.33334 12.57418 3.196078
45.55556 12.57418 3.156863
45.77778 12.57418 3.156863
46 12.57418 3.117647
46.22222 12.57418 3.078431
46.44444 12.57418 3.039216
46.66666 12.57418 3.039216
46.88889 12.57418 2.921568
47.11111 12.57418 2.921568
47.33334 12.57418 2.882353
47.55556 12.57418 2.843137
47.77778 12.57418 2.803922
48 12.57418 2.72549
48.22222 12.57418 2.686275
48.44444 12.57418 2.686275
48.66666 12.57418 2.647059
48.88889 12.57418 2.607843
49.11111 12.57418 2.647059
49.33334 12.57418 2.607843
49.55556 12.57418 2.529412
49.77778 12.57418 2.529412
50 12.57418 2.490196
50.22222 12.57418 -5
-50 12.79674 -5
-48.88889 12.79674 3.156863
-45.77778 12.79674 3.117647
-44.44444 12.79674 3.039216
-43.55556 12.79674 3.117647
-42.66667 12.79674 3.039216
-42.44444 12.79674 3.078431
-42.22222 12.79674 3.039216
-42 12.79674 3.078431
-41.77778 12.79674 3.078431
-41.55556 12.79674 3.039216
-41.33333 12.79674 3
-41.11111 12.79674 3
-40.88889 12.79674 3
-40.66667 12.79674 2.960784
-40.44444 12.79674 2.960784
-39.55556 12.79674 3
-39.33333 12.79674 2.960784
-39.11111 12.79674 2.960784
-38.88889 12.79674 2.960784
-38.66667 12.79674 2.960784
-37.55556 12.79674 2.960784
-37.33333 12.79674 2.960784
-37.11111 12.79674 2.960784
-36.88889 12.79674 2.960784
-36.66667 12.79674 3
-36.44444 12.79674 2.960784
-36.22222 12.79674 2.960784
-36 12.79674 2.960784
-35.77778 12.79674 2.960784
-35.55556 12.79674 3
-33.77778 12.79674 3
-33.55556 12.79674 3
-33.33334 12.79674 3
-28.88889 12.79674 2.921568
-26.44444 12.79674 2.921568
-21.55556 12.79674 2.882353
-21.33333 12.79674 2.803922
-20.22222 12.79674 2.803922
-20 12.79674 2.803922
-17.55556 12.79674 2.882353
-16 12.79674 2.843137
-15.77778 12.79674 2.882353
-14.88889 12.79674 2.843137
-14.66667 12.79674 2.843137
-14.44444 12.79674 2.843137
-14.22222 12.79674 2.803922
-14 12.79674 2.803922
-13.77778 12.79674 2.764706
-12.44444 12.79674 2.72549
-12.22222 12.79674 2.764706
-12 12.79674 2.803922
-11.77778 12.79674 2.803922
-11.55556 12.79674 2.764706
-11.33333 12.79674 2.803922
-11.11111 12.79674 2.803922
-10.88889 12.79674 2.764706
-10.66667 12.79674 2.803922
-10.44444 12.79674 2.803922
-10.22222 12.79674 2.764706
-10 12.79674 2.764706
-9.777779 12.79674 2.764706
-8.888889 12.79674 2.803922
-7.777779 12.79674 2.803922
-7.555557 12.79674 2.764706
-7.333332 12.79674 2.803922
-7.111111 12.79674 2.803922
-6.888889 12.79674 2.764706
-6.666668 12.79674 2.803922
-6.444443 12.79674 2.803922
-6.222221 12.79674 2.764706
-6 12.79674 2.764706
-5.777779 12.79674 2.843137
-5.555557 12.79674 2.803922
-5.333332 12.79674 2.803922
-5.111111 12.79674 2.803922
-4.888889 12.79674 2.803922
-4.666668 12.79674 2.764706
-4.444443 12.79674 2.803922
-4.222221 12.79674 2.803922
-4 12.79674 2.803922
-3.777779 12.79674 2.764706
-3.555557 12.79674 2.764706
-3.333332 12.79674 2.72549
-3.111111 12.79674 2.72549
-2.888889 12.79674 1.627451
-2.666668 12.79674 0.7647057
-2.444443 12.79674 -0.5686274
-2.222221 12.79674 -0.5686274
-2 12.79674 -0.5686274
-1.777779 12.79674 -0.5294118
-1.555557 12.79674 -0.4901962
-1.333332 12.79674 -0.5294118
-1.111111 12.79674 -0.4509802
-0.8888893 12.79674 -0.5686274
-0.6666679 12.79674 -0.4509802
-0.4444427 12.79674 -0.4509802
-0.2222214 12.79674 -0.7254901
0 12.79674 -0.7647057
0.2222214 12.79674 -0.7254901
0.4444427 12.79674 -0.7254901
0.6666679 12.79674 -0.7647057
0.8888893 12.79674 -0.7647057
1.111111 12.79674 -0.7647057
1.333332 12.79674 -0.8039217
1.555557 12.79674 -0.8431373
1.777779 12.79674 -0.5294118
2 12.79674 2.254902
2.222221 12.79674 2.686275
2.444443 12.79674 2.647059
2.666668 12.79674 2.647059
2.888889 12.79674 2.607843
4.222221 12.79674 2.647059
4.444443 12.79674 2.647059
4.666668 12.79674 2.647059
4.888889 12.79674 2.647059
5.111111 12.79674 2.764706
5.333332 12.79674 2.72549
5.555557 12.79674 2.72549
5.777779 12.79674 2.686275
6 12.79674 2.686275
6.222221 12.79674 2.72549
6.444443 12.79674 2.607843
6.666668 12.79674 2.647059
6.888889 12.79674 2.607843
7.111111 12.79674 2.647059
7.333332 12.79674 2.607843
7.555557 12.79674 2.568627
7.777779 12.79674 2.529412
9.111111 12.79674 2.607843
9.333332 12.79674 2.647059
9.555557 12.79674 2.686275
9.777779 12.79674 2.647059
10 12.79674 2.647059
10.22222 12.79674 2.686275
10.44444 12.79674 2.647059
12 12.79674 2.568627
12.22222 12.79674 2.529412
12.44444 12.79674 2.607843
12.66667 12.79674 2.568627
12.88889 12.79674 2.333333
13.11111 12.79674 1.392157
13.33333 12.79674 0.5294118
13.55556 12.79674 0.6078429
13.77778 12.79674 2.568627
14 12.79674 2.607843
14.22222 12.79674 2.607843
14.44444 12.79674 2.607843
14.66666 12.79674 2.568627
14.88889 12.79674 2.568627
15.11111 12.79674 2.568627
15.33334 12.79674 2.568627
15.55556 12.79674 2.607843
15.77778 12.79674 2.607843
16 12.79674 2.607843
16.22222 12.79674 2.607843
16.44444 12.79674 2.568627
16.66666 12.79674 2.607843
16.88889 12.79674 2.568627
17.11111 12.79674 2.607843
17.33334 12.79674 2.607843
17.55556 12.79674 2.607843
17.77778 12.79674 2.607843
18 12.79674 2.686275
18.22222 12.79674 2.647059
18.44444 12.79674 2.686275
18.66666 12.79674 2.686275
19.55556 12.79674 2.764706
19.77778 12.79674 2.72549
20 12.79674 2.72549
20.22222 12.79674 2.686275
20.44444 12.79674 2.686275
20.66666 12.79674 2.647059
20.88889 12.79674 2.686275
21.11111 12.79674 2.686275
22 12.79674 2.686275
22.22222 12.79674 2.686275
22.44444 12.79674 2.686275
22.66666 12.79674 2.686275
22.88889 12.79674 2.647059
23.11111 12.79674 2.647059
23.33334 12.79674 2.647059
23.55556 12.79674 2.686275
23.77778 12.79674 2.72549
24 12.79674 2.686275
24.22222 12.79674 2.647059
24.44444 12.79674 2.647059
24.66666 12.79674 2.607843
24.88889 12.79674 2.607843
25.11111 12.79674 2.607843
25.33334 12.79674 2.647059
25.55556 12.79674 2.647059
25.77778 12.79674 2.647059
27.55556 12.79674 2.686275
27.77778 12.79674 2.686275
28 12.79674 2.647059
28.22222 12.79674 2.686275
28.44444 12.79674 2.686275
28.66666 12.79674 2.72549
28.88889 12.79674 2.72549
29.11111 12.79674 2.72549
29.33334 12.79674 2.72549
29.55556 12.79674 2.72549
29.77778 12.79674 2.72549
30 12.79674 2.72549
30.22222 12.79674 2.72549
30.44444 12.79674 2.72549
30.66666 12.79674 2.72549
30.88889 12.79674 2.72549
31.11111 12.79674 2.764706
31.33334 12.79674 2.72549
31.55556 12.79674 2.72549
31.77778 12.79674 2.686275
32 12.79674 2.686275
32.22222 12.79674 2.686275
32.44444 12.79674 2.686275
32.66666 12.79674 2.72549
32.88889 12.79674 2.647059
33.11111 12.79674 2.647059
33.33334 12.79674 2.647059
33.55556 12.79674 2.686275
33.77778 12.79674 2.686275
34 12.79674 2.686275
34.22222 12.79674 2.686275
34.44444 12.79674 2.686275
34.66666 12.79674 2.686275
34.88889 12.79674 2.647059
35.11111 12.79674 2.607843
35.33334 12.79674 2.647059
35.55556 12.79674 2.647059
35.77778 12.79674 2.607843
36 12.79674 2.647059
36.88889 12.79674 2.607843
37.11111 12.79674 2.607843
37.33334 12.79674 2.647059
37.55556 12.79674 2.647059
37.77778 12.79674 2.607843
38 12.79674 2.607843
38.22222 12.79674 2.607843
38.44444 12.79674 2.607843
38.66666 12.79674 2.607843
38.88889 12.79674 2.607843
39.11111 12.79674 2.647059
39.33334 12.79674 2.607843
39.55556 12.79674 2.607843
39.77778 12.79674 2.607843
40 12.79674 2.607843
40.22222 12.79674 2.607843
40.44444 12.79674 2.568627
40.66666 12.79674 2.568627
40.88889 12.79674 2.568627
41.11111 12.79674 2.607843
41.33334 12.79674 2.607843
41.55556 12.79674 2.607843
41.77778 12.79674 2.647059
42 12.79674 2.686275
42.22222 12.79674 2.803922
42.44444 12.79674 2.921568
42.66666 12.79674 2.960784
42.88889 12.79674 3.078431
43.11111 12.79674 3.117647
43.33334 12.79674 3.117647
43.55556 12.79674 3.156863
43.77778 12.79674 3.156863
44 12.79674 3.235294
44.22222 12.79674 3.274509
44.44444 12.79674 3.235294
44.66666 12.79674 3.235294
44.88889 12.79674 3.313725
45.11111 12.79674 3.274509
45.33334 12.79674 3.196078
45.55556 12.79674 3.156863
45.77778 12.79674 3.117647
46 12.79674 3.117647
46.22222 12.79674 3.039216
46.44444 12.79674 3.039216
46.66666 12.79674 3
46.88889 12.79674 2.921568
47.11111 12.79674 2.882353
47.33334 12.79674 2.882353
47.55556 12.79674 2.843137
47.77778 12.79674 2.764706
48 12.79674 2.72549
48.22222 12.79674 2.686275
48.44444 12.79674 2.686275
48.66666 12.79674 2.686275
48.88889 12.79674 2.647059
49.11111 12.79674 2.607843
49.33334 12.79674 2.607843
49.55556 12.79674 2.568627
49.77778 12.79674 2.490196
50 12.79674 2.490196
50.22222 12.79674 -5
-50 13.01929 -5
-48.88889 13.01929 3.156863
-44.44444 13.01929 3.078431
-43.55556 13.01929 3.117647
-42.66667 13.01929 3.078431
-42.44444 13.01929 3.039216
-42.22222 13.01929 3.078431
-42 13.01929 3.039216
-41.77778 13.01929 3.039216
-41.55556 13.01929 3
-41.33333 13.01929 3
-41.11111 13.01929 3
-40.88889 13.01929 3
-40.66667 13.01929 2.960784
-40.44444 13.01929 3
-39.55556 13.01929 2.960784
-39.33333 13.01929 3
-39.11111 13.01929 3.039216
-38.88889 13.01929 3
-38.66667 13.01929 2.960784
-38.44444 13.01929 3
-38.22222 13.01929 2.960784
-38 13.01929 2.960784
-37.77778 13.01929 2.960784
-37.55556 13.01929 2.960784
-37.33333 13.01929 2.960784
-37.11111 13.01929 3
-36.88889 13.01929 3
-36.66667 13.01929 3
-36.44444 13.01929 3
-36.22222 13.01929 2.960784
-36 13.01929 3
-35.77778 13.01929 3
-35.55556 13.01929 2.960784
-33.77778 13.01929 3
-33.55556 13.01929 3
-33.33334 13.01929 2.960784
-28.44444 13.01929 2.921568
-28.22222 13.01929 2.921568
-28 13.01929 2.921568
-27.77778 13.01929 2.921568
-27.55556 13.01929 2.921568
-27.33333 13.01929 2.921568
-27.11111 13.01929 2.921568
-26.88889 13.01929 2.882353
-26 13.01929 2.882353
-25.77778 13.01929 2.882353
-25.55556 13.01929 2.882353
-18.22222 13.01929 2.843137
-18 13.01929 2.882353
-17.77778 13.01929 2.843137
-17.55556 13.01929 2.882353
-16.44444 13.01929 2.882353
-16.22222 13.01929 2.843137
-16 13.01929 2.843137
-15.77778 13.01929 2.843137
-15.55556 13.01929 2.843137
-15.33333 13.01929 2.803922
-13.77778 13.01929 2.764706
-12.44444 13.01929 2.803922
-12.22222 13.01929 2.803922
-12 13.01929 2.843137
-11.77778 13.01929 2.843137
-11.55556 13.01929 2.843137
-11.33333 13.01929 2.843137
-11.11111 13.01929 2.843137
-10.88889 13.01929 2.803922
-10.66667 13.01929 2.803922
-10.44444 13.01929 2.843137
-10.22222 13.01929 2.843137
-10 13.01929 2.803922
-9.777779 13.01929 2.803922
-9.555557 13.01929 2.843137
-9.333332 13.01929 2.843137
-9.111111 13.01929 2.843137
-8.888889 13.01929 2.803922
-7.777779 13.01929 2.803922
-7.555557 13.01929 2.803922
-7.333332 13.01929 2.764706
-7.111111 13.01929 2.803922
-6.888889 13.01929 2.803922
-6.666668 13.01929 2.843137
-6.444443 13.01929 2.764706
-6.222221 13.01929 2.764706
-6 13.01929 2.764706
-5.777779 13.01929 2.764706
-5.555557 13.01929 2.764706
-5.333332 13.01929 2.764706
-5.111111 13.01929 2.803922
-4.888889 13.01929 2.803922
-4.666668 13.01929 2.764706
-4.444443 13.01929 2.843137
-4.222221 13.01929 2.764706
-4 13.01929 2.72549
-3.777779 13.01929 2.764706
-3.555557 13.01929 2.764706
-3.333332 13.01929 2.764706
-3.111111 13.01929 2.803922
-2.888889 13.01929 2.058824
-2.666668 13.01929 2.215686
-2.444443 13.01929 1.509804
-2.222221 13.01929 0.3725491
-2 13.01929 -0.4117646
-1.777779 13.01929 -0.6078429
-1.555557 13.01929 -0.4901962
-1.333332 13.01929 -0.5294118
-1.111111 13.01929 -0.6862745
-0.8888893 13.01929 -0.647059
-0.6666679 13.01929 -0.7254901
-0.4444427 13.01929 -0.8039217
-0.2222214 13.01929 -0.7647057
0 13.01929 -0.7254901
0.2222214 13.01929 -0.7647057
0.4444427 13.01929 -0.8039217
0.6666679 13.01929 -0.8039217
0.8888893 13.01929 -0.8431373
1.111111 13.01929 -0.8039217
1.333332 13.01929 -0.647059
1.555557 13.01929 -0.3333335
1.777779 13.01929 -0.05882359
2 13.01929 2.215686
2.222221 13.01929 2.686275
2.444443 13.01929 2.686275
2.666668 13.01929 2.647059
2.888889 13.01929 2.647059
3.111111 13.01929 2.647059
4.444443 13.01929 2.686275
4.666668 13.01929 2.647059
4.888889 13.01929 2.647059
5.111111 13.01929 2.72549
5.333332 13.01929 2.72549
5.555557 13.01929 2.72549
5.777779 13.01929 2.764706
6 13.01929 2.72549
6.222221 13.01929 2.72549
6.444443 13.01929 2.647059
6.666668 13.01929 2.647059
6.888889 13.01929 2.607843
7.111111 13.01929 2.647059
7.333332 13.01929 2.607843
7.555557 13.01929 2.529412
7.777779 13.01929 2.568627
9.111111 13.01929 2.568627
9.333332 13.01929 2.568627
9.555557 13.01929 2.568627
9.777779 13.01929 2.568627
10 13.01929 2.568627
10.22222 13.01929 2.607843
10.44444 13.01929 2.607843
11.33333 13.01929 2.568627
11.55556 13.01929 2.568627
11.77778 13.01929 2.568627
12 13.01929 2.607843
12.22222 13.01929 2.607843
12.44444 13.01929 2.568627
12.66667 13.01929 2.529412
12.88889 13.01929 2.529412
13.11111 13.01929 2.686275
13.33333 13.01929 1.235294
13.55556 13.01929 2.372549
13.77778 13.01929 2.607843
14 13.01929 2.568627
14.22222 13.01929 2.607843
14.44444 13.01929 2.647059
14.66666 13.01929 2.568627
14.88889 13.01929 2.607843
15.11111 13.01929 2.568627
15.33334 13.01929 2.568627
15.55556 13.01929 2.607843
15.77778 13.01929 2.607843
16 13.01929 2.607843
16.22222 13.01929 2.607843
16.44444 13.01929 2.607843
16.66666 13.01929 2.607843
17.55556 13.01929 2.607843
17.77778 13.01929 2.568627
18 13.01929 2.647059
18.22222 13.01929 2.647059
18.44444 13.01929 2.686275
18.66666 13.01929 2.686275
19.55556 13.01929 2.72549
19.77778 13.01929 2.686275
20 13.01929 2.686275
20.22222 13.01929 2.647059
20.44444 13.01929 2.686275
20.66666 13.01929 2.647059
20.88889 13.01929 2.647059
21.11111 13.01929 2.686275
22 13.01929 2.647059
22.22222 13.01929 2.647059
22.44444 13.01929 2.647059
22.66666 13.01929 2.647059
22.88889 13.01929 2.647059
23.11111 13.01929 2.647059
23.33334 13.01929 2.607843
23.55556 13.01929 2.607843
23.77778 13.01929 2.607843
24 13.01929 2.568627
24.22222 13.01929 2.568627
24.44444 13.01929 2.568627
24.66666 13.01929 2.607843
24.88889 13.01929 2.607843
25.11111 13.01929 2.568627
25.33334 13.01929 2.568627
25.55556 13.01929 2.568627
25.77778 13.01929 2.568627
26 13.01929 2.607843
26.22222 13.01929 2.607843
26.44444 13.01929 2.686275
26.66666 13.01929 2.647059
27.55556 13.01929 2.647059
27.77778 13.01929 2.647059
28 13.01929 2.72549
28.22222 13.01929 2.686275
28.44444 13.01929 2.72549
28.66666 13.01929 2.764706
28.88889 13.01929 2.764706
29.11111 13.01929 2.764706
29.33334 13.01929 2.72549
29.55556 13.01929 2.764706
29.77778 13.01929 2.764706
30 13.01929 2.764706
30.22222 13.01929 2.72549
30.44444 13.01929 2.72549
30.66666 13.01929 2.686275
30.88889 13.01929 2.686275
31.11111 13.01929 2.686275
31.33334 13.01929 2.686275
31.55556 13.01929 2.686275
31.77778 13.01929 2.686275
32 13.01929 2.686275
32.22222 13.01929 2.686275
32.44444 13.01929 2.72549
32.66666 13.01929 2.607843
32.88889 13.01929 2.647059
33.11111 13.01929 2.607843
33.33334 13.01929 2.647059
33.55556 13.01929 2.647059
33.77778 13.01929 2.647059
34 13.01929 2.686275
34.22222 13.01929 2.647059
34.44444 13.01929 2.607843
34.66666 13.01929 2.647059
34.88889 13.01929 2.607843
35.11111 13.01929 2.568627
35.33334 13.01929 2.647059
35.55556 13.01929 2.647059
35.77778 13.01929 2.607843
36 13.01929 2.607843
36.88889 13.01929 2.607843
37.11111 13.01929 2.607843
37.33334 13.01929 2.607843
37.55556 13.01929 2.607843
37.77778 13.01929 2.607843
38 13.01929 2.607843
38.22222 13.01929 2.607843
38.44444 13.01929 2.607843
38.66666 13.01929 2.607843
38.88889 13.01929 2.607843
39.11111 13.01929 2.607843
39.33334 13.01929 2.607843
39.55556 13.01929 2.568627
39.77778 13.01929 2.568627
40 13.01929 2.568627
40.22222 13.01929 2.607843
40.44444 13.01929 2.607843
40.66666 13.01929 2.607843
40.88889 13.01929 2.568627
41.11111 13.01929 2.568627
41.33334 13.01929 2.607843
41.55556 13.01929 2.647059
41.77778 13.01929 2.686275
42 13.01929 2.803922
42.22222 13.01929 2.843137
42.44444 13.01929 2.960784
42.66666 13.01929 3.039216
42.88889 13.01929 3.078431
43.11111 13.01929 3.117647
43.33334 13.01929 3.156863
43.55556 13.01929 3.156863
43.77778 13.01929 3.196078
44 13.01929 3.235294
44.22222 13.01929 3.235294
44.44444 13.01929 3.235294
44.66666 13.01929 3.235294
44.88889 13.01929 3.235294
45.11111 13.01929 3.117647
45.33334 13.01929 3.117647
45.55556 13.01929 3.117647
45.77778 13.01929 3.039216
46 13.01929 3
46.22222 13.01929 3
46.44444 13.01929 3
46.66666 13.01929 2.921568
46.88889 13.01929 2.921568
47.11111 13.01929 2.960784
47.33334 13.01929 2.882353
47.55556 13.01929 2.803922
47.77778 13.01929 2.764706
48 13.01929 2.764706
48.22222 13.01929 2.72549
48.44444 13.01929 2.686275
48.66666 13.01929 2.647059
48.88889 13.01929 2.647059
49.11111 13.01929 2.607843
49.33334 13.01929 2.607843
49.55556 13.01929 2.568627
49.77778 13.01929 2.529412
50 13.01929 2.568627
50.22222 13.01929 -5
-49.77778 13.24184 3.156863
-50 13.24184 -5
-49.55556 13.24184 3.156863
-49.33333 13.24184 3.156863
-44.88889 13.24184 3.117647
-44.66667 13.24184 3.078431
-44.44444 13.24184 3.078431
-44.22222 13.24184 3.078431
-44 13.24184 3.078431
-43.77778 13.24184 3.039216
-43.55556 13.24184 3.039216
-43.33333 13.24184 3.078431
-43.11111 13.24184 3.039216
-42.88889 13.24184 3
-42.66667 13.24184 3.039216
-42.44444 13.24184 3
-42.22222 13.24184 3
-42 13.24184 3
-41.77778 13.24184 3
-41.55556 13.24184 3.039216
-41.33333 13.24184 2.960784
-41.11111 13.24184 3
-40.88889 13.24184 3
-40.66667 13.24184 3
-40.44444 13.24184 3
-39.55556 13.24184 3
-39.33333 13.24184 3
-39.11111 13.24184 2.960784
-38.88889 13.24184 2.960784
-38.66667 13.24184 3
-38.44444 13.24184 3
-38.22222 13.24184 3
-38 13.24184 3
-37.77778 13.24184 3
-37.55556 13.24184 2.960784
-37.33333 13.24184 2.960784
-37.11111 13.24184 3
-36.88889 13.24184 3
-36.66667 13.24184 2.960784
-36.44444 13.24184 2.960784
-36.22222 13.24184 3
-36 13.24184 2.960784
-33.77778 13.24184 2.960784
-33.55556 13.24184 2.960784
-33.33334 13.24184 2.960784
-28.44444 13.24184 2.960784
-28.22222 13.24184 2.960784
-27.11111 13.24184 2.921568
-26.88889 13.24184 2.921568
-18.22222 13.24184 2.882353
-18 13.24184 2.882353
-17.77778 13.24184 2.843137
-17.55556 13.24184 2.882353
-16.44444 13.24184 2.843137
-16.22222 13.24184 2.882353
-16 13.24184 2.882353
-15.77778 13.24184 2.843137
-15.55556 13.24184 2.764706
-15.33333 13.24184 2.764706
-12.44444 13.24184 2.803922
-12.22222 13.24184 2.803922
-12 13.24184 2.803922
-11.77778 13.24184 2.803922
-11.55556 13.24184 2.803922
-11.33333 13.24184 2.803922
-11.11111 13.24184 2.803922
-10.88889 13.24184 2.803922
-10.66667 13.24184 2.803922
-10.44444 13.24184 2.803922
-10.22222 13.24184 2.803922
-10 13.24184 2.803922
-9.777779 13.24184 2.803922
-9.555557 13.24184 2.803922
-9.333332 13.24184 2.803922
-9.111111 13.24184 2.803922
-8.888889 13.24184 2.803922
-8.666668 13.24184 2.843137
-8.444443 13.24184 2.843137
-8.222221 13.24184 2.803922
-8 13.24184 2.803922
-7.111111 13.24184 2.803922
-6.888889 13.24184 2.764706
-6.666668 13.24184 2.764706
-6.444443 13.24184 2.764706
-6.222221 13.24184 2.764706
-6 13.24184 2.764706
-5.777779 13.24184 2.803922
-5.555557 13.24184 2.764706
-5.333332 13.24184 2.764706
-5.111111 13.24184 2.764706
-4.888889 13.24184 2.764706
-4.666668 13.24184 2.764706
-4.444443 13.24184 2.764706
-4.222221 13.24184 2.72549
-4 13.24184 2.72549
-3.777779 13.24184 2.764706
-3.555557 13.24184 2.764706
-3.333332 13.24184 2.72549
-3.111111 13.24184 2.764706
-2.888889 13.24184 1.27451
-2.666668 13.24184 1.470588
-2.444443 13.24184 2.254902
-2.222221 13.24184 3
-2 13.24184 3.509804
-1.777779 13.24184 1.784314
-1.555557 13.24184 0.1764708
-1.333332 13.24184 -0.5294118
-1.111111 13.24184 -0.7254901
-0.8888893 13.24184 -0.6862745
-0.6666679 13.24184 -0.6862745
-0.4444427 13.24184 -0.8039217
-0.2222214 13.24184 -0.7647057
0 13.24184 -0.8039217
0.2222214 13.24184 -0.7254901
0.4444427 13.24184 -0.647059
0.6666679 13.24184 -0.5686274
0.8888893 13.24184 -0.4117646
1.111111 13.24184 -0.05882359
1.333332 13.24184 -0.01960802
1.555557 13.24184 -0.09803915
1.777779 13.24184 -0.1764708
2 13.24184 2.215686
2.222221 13.24184 2.764706
2.444443 13.24184 2.686275
2.666668 13.24184 2.686275
2.888889 13.24184 2.647059
3.111111 13.24184 2.607843
4.444443 13.24184 2.607843
4.666668 13.24184 2.607843
4.888889 13.24184 2.647059
5.111111 13.24184 2.686275
5.333332 13.24184 2.686275
5.555557 13.24184 2.72549
5.777779 13.24184 2.72549
6 13.24184 2.686275
6.222221 13.24184 2.72549
6.444443 13.24184 2.686275
6.666668 13.24184 2.686275
6.888889 13.24184 2.647059
7.111111 13.24184 2.607843
7.333332 13.24184 2.529412
7.555557 13.24184 2.529412
7.777779 13.24184 2.529412
9.555557 13.24184 2.568627
9.777779 13.24184 2.607843
10 13.24184 2.568627
10.22222 13.24184 2.568627
10.44444 13.24184 2.568627
11.33333 13.24184 2.568627
11.55556 13.24184 2.568627
11.77778 13.24184 2.607843
12 13.24184 2.568627
12.22222 13.24184 2.568627
12.44444 13.24184 2.568627
12.66667 13.24184 2.568627
12.88889 13.24184 2.607843
13.11111 13.24184 2.72549
13.33333 13.24184 0.647059
13.55556 13.24184 2.529412
13.77778 13.24184 2.529412
14 13.24184 2.607843
14.22222 13.24184 2.647059
14.44444 13.24184 2.568627
14.66666 13.24184 2.607843
14.88889 13.24184 2.607843
15.11111 13.24184 2.568627
15.33334 13.24184 2.607843
15.55556 13.24184 2.607843
15.77778 13.24184 2.568627
16 13.24184 2.568627
16.22222 13.24184 2.568627
16.44444 13.24184 2.607843
16.66666 13.24184 2.607843
17.55556 13.24184 2.607843
17.77778 13.24184 2.568627
18 13.24184 2.647059
18.22222 13.24184 2.607843
18.44444 13.24184 2.686275
18.66666 13.24184 2.686275
19.55556 13.24184 2.72549
19.77778 13.24184 2.686275
20 13.24184 2.686275
20.22222 13.24184 2.686275
20.44444 13.24184 2.686275
20.66666 13.24184 2.607843
20.88889 13.24184 2.607843
21.11111 13.24184 2.607843
22 13.24184 2.686275
22.22222 13.24184 2.686275
22.44444 13.24184 2.647059
22.66666 13.24184 2.647059
22.88889 13.24184 2.607843
23.11111 13.24184 2.607843
23.33334 13.24184 2.568627
23.55556 13.24184 2.568627
23.77778 13.24184 2.568627
24 13.24184 2.529412
24.22222 13.24184 2.529412
24.44444 13.24184 2.529412
24.66666 13.24184 2.568627
24.88889 13.24184 2.568627
25.11111 13.24184 2.568627
25.33334 13.24184 2.568627
25.55556 13.24184 2.568627
25.77778 13.24184 2.568627
26 13.24184 2.568627
26.22222 13.24184 2.568627
26.44444 13.24184 2.568627
26.66666 13.24184 2.568627
26.88889 13.24184 2.607843
27.11111 13.24184 2.607843
27.33334 13.24184 2.607843
27.55556 13.24184 2.607843
27.77778 13.24184 2.607843
28 13.24184 2.647059
28.22222 13.24184 2.686275
28.44444 13.24184 2.686275
28.66666 13.24184 2.72549
28.88889 13.24184 2.72549
29.11111 13.24184 2.764706
29.33334 13.24184 2.72549
29.55556 13.24184 2.764706
29.77778 13.24184 2.72549
30 13.24184 2.72549
30.22222 13.24184 2.686275
30.44444 13.24184 2.686275
30.66666 13.24184 2.686275
30.88889 13.24184 2.686275
31.11111 13.24184 2.686275
31.33334 13.24184 2.72549
31.55556 13.24184 2.72549
31.77778 13.24184 2.72549
32 13.24184 2.686275
32.22222 13.24184 2.72549
33.11111 13.24184 2.607843
33.33334 13.24184 2.647059
33.55556 13.24184 2.647059
33.77778 13.24184 2.607843
34 13.24184 2.607843
34.22222 13.24184 2.607843
34.44444 13.24184 2.647059
34.66666 13.24184 2.647059
34.88889 13.24184 2.568627
35.11111 13.24184 2.607843
35.33334 13.24184 2.607843
35.55556 13.24184 2.607843
35.77778 13.24184 2.607843
36 13.24184 2.568627
36.88889 13.24184 2.568627
37.11111 13.24184 2.529412
37.33334 13.24184 2.568627
37.55556 13.24184 2.568627
37.77778 13.24184 2.568627
38 13.24184 2.568627
38.22222 13.24184 2.568627
38.44444 13.24184 2.568627
38.66666 13.24184 2.568627
38.88889 13.24184 2.568627
39.11111 13.24184 2.529412
39.33334 13.24184 2.529412
39.55556 13.24184 2.529412
39.77778 13.24184 2.529412
40 13.24184 2.529412
40.22222 13.24184 2.529412
40.44444 13.24184 2.529412
40.66666 13.24184 2.490196
40.88889 13.24184 2.529412
41.11111 13.24184 2.529412
41.33334 13.24184 2.686275
41.55556 13.24184 2.647059
41.77778 13.24184 2.803922
42 13.24184 2.882353
42.22222 13.24184 2.882353
42.44444 13.24184 3.039216
42.66666 13.24184 3.039216
42.88889 13.24184 3.078431
43.11111 13.24184 3.117647
43.33334 13.24184 3.196078
43.55556 13.24184 3.156863
43.77778 13.24184 3.156863
44 13.24184 3.117647
44.22222 13.24184 3.156863
44.44444 13.24184 3.156863
44.66666 13.24184 3.117647
44.88889 13.24184 3.117647
45.11111 13.24184 3.078431
45.33334 13.24184 3.039216
45.55556 13.24184 3.039216
45.77778 13.24184 3
46 13.24184 2.960784
46.22222 13.24184 3
46.44444 13.24184 2.921568
46.66666 13.24184 2.882353
46.88889 13.24184 2.843137
47.11111 13.24184 2.882353
47.33334 13.24184 2.843137
47.55556 13.24184 2.803922
47.77778 13.24184 2.72549
48 13.24184 2.764706
48.22222 13.24184 2.764706
48.44444 13.24184 2.686275
48.66666 13.24184 2.647059
48.88889 13.24184 2.647059
49.11111 13.24184 2.647059
49.33334 13.24184 2.607843
49.55556 13.24184 2.607843
49.77778 13.24184 2.529412
50 13.24184 2.529412
50.22222 13.24184 -5
-49.77778 13.46439 3.156863
-50 13.46439 -5
-49.55556 13.46439 3.156863
-49.33333 13.46439 3.117647
-44.88889 13.46439 3.117647
-44.66667 13.46439 3.117647
-44.44444 13.46439 3.117647
-44.22222 13.46439 3.117647
-44 13.46439 3.117647
-43.77778 13.46439 3.039216
-43.55556 13.46439 3.039216
-43.33333 13.46439 3.078431
-43.11111 13.46439 3.039216
-42.88889 13.46439 3
-42.66667 13.46439 3
-42.44444 13.46439 3
-42.22222 13.46439 3
-42 13.46439 3
-41.77778 13.46439 3
-41.55556 13.46439 2.960784
-41.33333 13.46439 2.960784
-41.11111 13.46439 3
-40.88889 13.46439 3
-40.66667 13.46439 3
-40.44444 13.46439 3
-40.22222 13.46439 3
-40 13.46439 2.960784
-39.77778 13.46439 2.960784
-39.55556 13.46439 2.960784
-38.66667 13.46439 3
-38.44444 13.46439 3
-38.22222 13.46439 2.960784
-38 13.46439 2.960784
-37.77778 13.46439 2.960784
-37.55556 13.46439 2.960784
-37.33333 13.46439 2.960784
-37.11111 13.46439 2.921568
-36.88889 13.46439 2.960784
-36.66667 13.46439 2.960784
-36.44444 13.46439 2.960784
-36.22222 13.46439 2.921568
-36 13.46439 3
-32.22222 13.46439 3
-27.11111 13.46439 2.921568
-26.88889 13.46439 2.921568
-18.22222 13.46439 2.843137
-18 13.46439 2.843137
-17.77778 13.46439 2.843137
-17.55556 13.46439 2.882353
-16.44444 13.46439 2.882353
-16.22222 13.46439 2.882353
-16 13.46439 2.882353
-15.77778 13.46439 2.803922
-15.55556 13.46439 2.803922
-15.33333 13.46439 2.803922
-12.44444 13.46439 2.803922
-12.22222 13.46439 2.803922
-12 13.46439 2.803922
-11.77778 13.46439 2.803922
-11.55556 13.46439 2.803922
-11.33333 13.46439 2.803922
-11.11111 13.46439 2.803922
-10.22222 13.46439 2.803922
-10 13.46439 2.803922
-9.777779 13.46439 2.803922
-9.555557 13.46439 2.803922
-9.333332 13.46439 2.803922
-9.111111 13.46439 2.803922
-8.888889 13.46439 2.803922
-8.666668 13.46439 2.843137
-8.444443 13.46439 2.843137
-8.222221 13.46439 2.803922
-8 13.46439 2.764706
-7.111111 13.46439 2.803922
-6.888889 13.46439 2.764706
-6.666668 13.46439 2.764706
-6.444443 13.46439 2.764706
-6.222221 13.46439 2.72549
-6 13.46439 2.686275
-5.777779 13.46439 2.764706
-5.555557 13.46439 2.72549
-5.333332 13.46439 2.764706
-5.111111 13.46439 2.764706
-4.888889 13.46439 2.764706
-4.666668 13.46439 2.72549
-4.444443 13.46439 2.764706
-4.222221 13.46439 2.72549
-4 13.46439 2.72549
-3.777779 13.46439 2.764706
-3.555557 13.46439 2.803922
-3.333332 13.46439 2.647059
-3.111111 13.46439 2.72549
-2.888889 13.46439 1.313725
-2.666668 13.46439 2.019608
-2.444443 13.46439 1.27451
-2.222221 13.46439 1.823529
-2 13.46439 3
-1.777779 13.46439 2.882353
-1.555557 13.46439 2.176471
-1.333332 13.46439 1.823529
-1.111111 13.46439 1.27451
-0.8888893 13.46439 1.235294
-0.6666679 13.46439 1
-0.4444427 13.46439 0.3333335
-0.2222214 13.46439 0.2941175
0 13.46439 0.09803915
0.2222214 13.46439 0.05882359
0.4444427 13.46439 0.01960802
0.6666679 13.46439 0.01960802
0.8888893 13.46439 -0.01960802
1.111111 13.46439 -0.1764708
1.333332 13.46439 -0.2156863
1.555557 13.46439 -0.09803915
1.777779 13.46439 -0.01960802
2 13.46439 2.176471
2.222221 13.46439 2.764706
2.444443 13.46439 2.686275
2.666668 13.46439 2.647059
2.888889 13.46439 2.607843
3.111111 13.46439 2.607843
4.666668 13.46439 2.607843
4.888889 13.46439 2.607843
5.111111 13.46439 2.686275
5.333332 13.46439 2.686275
5.555557 13.46439 2.72549
5.777779 13.46439 2.686275
6 13.46439 2.686275
6.222221 13.46439 2.647059
6.444443 13.46439 2.647059
6.666668 13.46439 2.647059
6.888889 13.46439 2.647059
7.111111 13.46439 2.607843
7.333332 13.46439 2.529412
7.555557 13.46439 2.529412
7.777779 13.46439 2.529412
9.555557 13.46439 2.568627
9.777779 13.46439 2.607843
10 13.46439 2.568627
10.22222 13.46439 2.568627
10.44444 13.46439 2.568627
10.66667 13.46439 2.607843
10.88889 13.46439 2.607843
11.11111 13.46439 2.607843
11.33333 13.46439 2.607843
11.55556 13.46439 2.607843
11.77778 13.46439 2.607843
12 13.46439 2.568627
12.22222 13.46439 2.529412
12.44444 13.46439 2.529412
12.66667 13.46439 2.607843
12.88889 13.46439 2.607843
13.11111 13.46439 2.647059
13.33333 13.46439 0.9607844
13.55556 13.46439 2.72549
13.77778 13.46439 2.568627
14 13.46439 2.490196
14.22222 13.46439 2.607843
14.44444 13.46439 2.568627
14.66666 13.46439 2.607843
14.88889 13.46439 2.607843
15.11111 13.46439 2.607843
15.33334 13.46439 2.607843
15.55556 13.46439 2.607843
15.77778 13.46439 2.529412
16 13.46439 2.529412
16.22222 13.46439 2.568627
16.44444 13.46439 2.568627
16.66666 13.46439 2.607843
17.55556 13.46439 2.568627
17.77778 13.46439 2.607843
18 13.46439 2.568627
18.22222 13.46439 2.607843
18.44444 13.46439 2.647059
18.66666 13.46439 2.686275
18.88889 13.46439 2.686275
19.11111 13.46439 2.686275
19.33334 13.46439 2.686275
19.55556 13.46439 2.686275
19.77778 13.46439 2.686275
20 13.46439 2.686275
20.22222 13.46439 2.607843
20.44444 13.46439 2.607843
20.66666 13.46439 2.607843
20.88889 13.46439 2.647059
21.11111 13.46439 2.607843
21.33334 13.46439 2.607843
21.55556 13.46439 2.607843
21.77778 13.46439 2.607843
22 13.46439 2.607843
22.22222 13.46439 2.607843
22.44444 13.46439 2.607843
22.66666 13.46439 2.607843
22.88889 13.46439 2.607843
23.11111 13.46439 2.568627
23.33334 13.46439 2.568627
23.55556 13.46439 2.568627
23.77778 13.46439 2.568627
24 13.46439 2.529412
24.22222 13.46439 2.529412
25.55556 13.46439 2.529412
25.77778 13.46439 2.568627
26 13.46439 2.568627
26.22222 13.46439 2.607843
26.44444 13.46439 2.607843
26.66666 13.46439 2.647059
26.88889 13.46439 2.607843
27.11111 13.46439 2.568627
27.33334 13.46439 2.568627
27.55556 13.46439 2.568627
27.77778 13.46439 2.607843
28 13.46439 2.607843
28.22222 13.46439 2.607843
28.44444 13.46439 2.607843
28.66666 13.46439 2.607843
28.88889 13.46439 2.607843
29.11111 13.46439 2.72549
29.33334 13.46439 2.72549
29.55556 13.46439 2.72549
29.77778 13.46439 2.72549
30 13.46439 2.72549
30.22222 13.46439 2.647059
30.44444 13.46439 2.647059
30.66666 13.46439 2.647059
30.88889 13.46439 2.647059
31.11111 13.46439 2.647059
31.33334 13.46439 2.647059
31.55556 13.46439 2.647059
31.77778 13.46439 2.647059
32 13.46439 2.647059
32.22222 13.46439 2.647059
33.11111 13.46439 2.607843
33.33334 13.46439 2.647059
33.55556 13.46439 2.607843
33.77778 13.46439 2.607843
34 13.46439 2.568627
34.22222 13.46439 2.647059
34.44444 13.46439 2.607843
34.66666 13.46439 2.607843
34.88889 13.46439 2.568627
35.11111 13.46439 2.647059
35.33334 13.46439 2.607843
35.55556 13.46439 2.607843
35.77778 13.46439 2.607843
36 13.46439 2.568627
36.22222 13.46439 2.568627
36.44444 13.46439 2.607843
36.66666 13.46439 2.607843
36.88889 13.46439 2.568627
