12.44444 30.15578 2.254902
12.44444 30.60089 2.254902
12 30.37834 2.254902
12.44444 30.37834 2.254902
14.66666 30.15578 2.137255
14.88889 30.15578 2.137255
14.88889 30.37834 2.137255
14.88889 30.60089 2.137255
14.66666 30.60089 2.137255
15.11111 30.15578 2.137255
15.11111 30.60089 2.137255
14.66666 30.37834 2.137255
15.11111 30.37834 2.137255
15.33334 30.15578 2.137255
15.33334 30.37834 2.137255
15.33334 30.60089 2.137255
15.55556 30.15578 2.137255
15.55556 30.60089 2.137255
15.55556 30.37834 2.137255
-27.55556 30.37834 3
-27.33333 30.37834 3
-27.33333 30.60089 3
-27.33333 30.82344 3
-27.55556 30.82344 3
-27.11111 30.37834 3
-27.11111 30.82344 3
-27.55556 30.60089 3
-27.11111 30.60089 3
-24.66667 30.37834 2.882353
-24.44444 30.37834 2.882353
-24.33333 30.60089 2.882353
-24.44444 30.82344 2.882353
-24.66667 30.82344 2.882353
-24.22222 30.37834 2.882353
-24.22222 30.82344 2.882353
-24 30.37834 2.882353
-24 30.82344 2.882353
-24.66667 30.60089 2.882353
-24 30.60089 2.882353
-14.66667 30.37834 2.607843
-14.44444 30.37834 2.607843
-14.44444 30.60089 2.607843
-14.44444 30.82344 2.607843
-14.66667 30.82344 2.607843
-14.22222 30.82344 2.607843
-14.66667 30.60089 2.607843
-5.777779 30.37834 2.372549
-5.555557 30.37834 2.372549
-5.444445 30.60089 2.372549
-5.555557 30.82344 2.372549
-5.777779 30.82344 2.372549
-5.333332 30.37834 2.372549
-5.333332 30.82344 2.372549
-5.111111 30.37834 2.372549
-5.111111 30.82344 2.372549
-5.777779 30.60089 2.372549
-5.111111 30.60089 2.372549
-2.444443 30.37834 2.254902
-2.222221 30.37834 2.254902
-2.111111 30.60089 2.254902
-2.222221 30.82344 2.254902
-2.444443 30.82344 2.254902
-2 30.37834 2.254902
-2 30.82344 2.254902
-1.777779 30.37834 2.254902
-1.777779 30.82344 2.254902
-2.444443 30.60089 2.254902
-1.777779 30.60089 2.254902
4.222221 30.37834 2.098039
4.444443 30.37834 2.098039
4.666666 30.60089 2.098039
4.444443 30.82344 2.098039
4.222221 30.82344 2.098039
4.666668 30.37834 2.098039
4.666668 30.82344 2.098039
4.888889 30.37834 2.098039
4.888889 30.82344 2.098039
5.111111 30.37834 2.098039
5.111111 30.82344 2.098039
4.222221 30.60089 2.098039
5.111111 30.60089 2.098039
14.22222 30.37834 2.137255
14.44444 30.37834 2.137255
14.44444 30.60089 2.137255
14.44444 30.82344 2.137255
14.22222 30.82344 2.137255
14.66666 30.82344 2.137255
14.22222 30.60089 2.137255
21.77778 30.37834 2.019608
22 30.37834 2.019608
22.11111 30.60089 2.019608
22 30.82344 2.019608
21.77778 30.82344 2.019608
22.22222 30.37834 2.019608
22.22222 30.82344 2.019608
21.77778 30.60089 2.019608
28.22222 30.37834 2.019608
28.44444 30.37834 2.019608
28.44444 30.60089 2.019608
28.44444 30.82344 2.019608
28.22222 30.82344 2.019608
28.66666 30.37834 2.019608
28.66666 30.82344 2.019608
28.22222 30.60089 2.019608
28.66666 30.60089 2.019608
40.88889 30.37834 2.098039
41.11111 30.37834 2.098039
41.11111 30.60089 2.098039
41.11111 30.82344 2.098039
40.88889 30.82344 2.098039
41.33334 30.37834 2.098039
41.33334 30.82344 2.098039
40.88889 30.60089 2.098039
41.33334 30.60089 2.098039
48.22222 30.60089 2.137255
48.22222 30.82344 2.137255
48 30.82344 2.137255
48.44444 30.37834 2.137255
48.44444 30.82344 2.137255
48 30.60089 2.137255
48.44444 30.60089 2.137255
-46.22222 30.60089 3.588235
-46 30.60089 3.588235
-46 30.93472 3.588235
-46 31.26855 3.588235
-46.22222 31.26855 3.588235
-45.77778 30.60089 3.588235
-45.77778 31.26855 3.588235
-46.22222 30.82344 3.588235
-45.77778 30.82344 3.588235
-46.22222 31.046 3.588235
-45.77778 31.046 3.588235
-29.77778 30.60089 3.078431
-29.55556 30.60089 3.078431
-29.55556 30.82344 3.078431
-29.55556 31.046 3.078431
-29.77778 31.046 3.078431
-29.33333 30.60089 3.078431
-29.33333 31.046 3.078431
-29.77778 30.82344 3.078431
-29.33333 30.82344 3.078431
-25.11111 30.60089 2.882353
-24.88889 30.60089 2.882353
-24.88889 30.82344 2.882353
-24.88889 31.046 2.882353
-25.11111 31.046 2.882353
-24.66667 31.046 2.882353
-25.11111 30.82344 2.882353
-12.66667 30.60089 2.529412
-12.44444 30.60089 2.529412
-12.44444 30.82344 2.529412
-12.44444 31.046 2.529412
-12.66667 31.046 2.529412
-12.22222 30.60089 2.529412
-12.22222 31.046 2.529412
-12.66667 30.82344 2.529412
-12.22222 30.82344 2.529412
-1.555557 30.60089 2.215686
-1.333332 30.60089 2.215686
-1.222223 30.82344 2.215686
-1.111111 30.60089 2.215686
-0.8888893 30.60089 2.215686
-1.555557 30.82344 2.215686
-0.8888893 30.82344 2.215686
0.8888893 30.60089 2.137255
1.111111 30.60089 2.137255
1.111111 30.82344 2.137255
1.333332 30.60089 2.137255
0.8888893 30.82344 2.137255
1.333332 30.82344 2.137255
1.777779 30.60089 2.137255
2 30.60089 2.137255
2 30.93472 2.137255
2 31.26855 2.137255
1.777779 31.26855 2.137255
2.222221 30.60089 2.137255
2.222221 31.26855 2.137255
1.777779 30.82344 2.137255
2.222221 30.82344 2.137255
1.777779 31.046 2.137255
2.222221 31.046 2.137255
5.777779 30.60089 2.098039
6 30.60089 2.098039
6 30.82344 2.098039
6 31.046 2.098039
5.777779 31.046 2.098039
6.222221 30.60089 2.098039
6.222221 31.046 2.098039
5.777779 30.82344 2.098039
6.222221 30.82344 2.098039
13.11111 30.60089 2.137255
13.33333 30.60089 2.137255
13.44444 30.82344 2.137255
13.33333 31.046 2.137255
13.11111 31.046 2.137255
13.55556 30.60089 2.137255
13.55556 31.046 2.137255
13.77778 30.60089 2.137255
13.77778 31.046 2.137255
13.11111 30.82344 2.137255
13.77778 30.82344 2.137255
39.11111 30.60089 2.098039
39.33334 30.60089 2.098039
39.77778 30.82344 2.098039
39.33334 31.046 2.098039
39.11111 31.046 2.098039
39.55556 30.60089 2.098039
39.55556 31.046 2.098039
39.77778 30.60089 2.098039
39.77778 31.046 2.098039
40 30.60089 2.098039
40 31.046 2.098039
40.22222 30.60089 2.098039
40.22222 31.046 2.098039
40.44444 30.60089 2.098039
40.44444 31.046 2.098039
39.11111 30.82344 2.098039
40.44444 30.82344 2.098039
44.44444 30.60089 2.058824
44.66667 30.82344 2.058824
44.44444 31.046 2.058824
44.66666 30.60089 2.058824
44.66666 31.046 2.058824
44.88889 30.60089 2.058824
44.88889 31.046 2.058824
-45.55556 30.82344 3.588235
-45.55556 31.04599 3.588235
-45.55556 31.26855 3.588235
-45.33333 30.82344 3.588235
-45.33333 31.26855 3.588235
-45.33333 31.046 3.588235
-41.11111 30.82344 3.470589
-40.88889 30.82344 3.470589
-40.88889 31.26855 3.470589
-40.88889 31.71365 3.470589
-41.11111 31.71365 3.470589
-40.66667 31.71365 3.470589
-41.11111 31.046 3.470589
-41.11111 31.26855 3.470589
-41.11111 31.4911 3.470589
-40.66667 31.4911 3.470589
-35.77778 30.82344 3.313725
-35.55556 30.82344 3.313725
-35.55556 31.15727 3.313725
-35.55556 31.4911 3.313725
-35.77778 31.4911 3.313725
-35.33333 30.82344 3.313725
-35.33333 31.4911 3.313725
-35.77778 31.046 3.313725
-35.33333 31.046 3.313725
-35.77778 31.26855 3.313725
-35.33333 31.26855 3.313725
-28.88889 30.82344 3.039216
-28.66667 30.82344 3.039216
-28.55556 31.04599 3.039216
-28.66667 31.26855 3.039216
-28.88889 31.26855 3.039216
-28.44444 30.82344 3.039216
-28.44444 31.26855 3.039216
-28.22222 30.82344 3.039216
-28.22222 31.26855 3.039216
-28.88889 31.046 3.039216
-28.22222 31.046 3.039216
-6.222221 30.82344 2.372549
-6 31.04599 2.372549
-6.222221 31.26855 2.372549
-6 30.82344 2.372549
-6 31.26855 2.372549
-5.777779 31.26855 2.372549
-5.555557 31.26855 2.372549
-5.555557 31.046 2.372549
17.77778 30.82344 2.019608
18 30.82344 2.019608
18.11111 31.04599 2.019608
18 31.26855 2.019608
18.22222 30.82344 2.019608
18.22222 31.26855 2.019608
19.33334 30.82344 2.019608
19.33334 31.15727 2.019608
19.33334 31.4911 2.019608
30.22222 30.82344 2.019608
30.44444 30.82344 2.019608
30.44444 31.04599 2.019608
30.44444 31.26855 2.019608
30.22222 31.26855 2.019608
30.66666 30.82344 2.019608
30.66666 31.26855 2.019608
30.22222 31.046 2.019608
30.66666 31.046 2.019608
-24.66667 31.26855 2.882353
-24.66667 31.4911 2.882353
-24.88889 31.4911 2.882353
-24.44444 31.046 2.882353
-24.44444 31.4911 2.882353
-24.88889 31.26855 2.882353
-24.44444 31.26855 2.882353
-17.11111 31.046 2.647059
-16.88889 31.046 2.647059
-16.77778 31.26855 2.647059
-16.88889 31.4911 2.647059
-17.11111 31.4911 2.647059
-16.66667 31.046 2.647059
-16.66667 31.4911 2.647059
-16.44444 31.046 2.647059
-16.44444 31.4911 2.647059
-17.11111 31.26855 2.647059
-16.44444 31.26855 2.647059
-13.77778 31.046 2.529412
-13.55556 31.046 2.529412
-13.55556 31.26855 2.529412
-13.55556 31.4911 2.529412
-13.77778 31.4911 2.529412
-13.33333 31.046 2.529412
-13.33333 31.4911 2.529412
-13.77778 31.26855 2.529412
-13.33333 31.26855 2.529412
-12 31.046 2.490196
-11.77778 31.046 2.490196
-11.77778 31.26855 2.490196
-11.77778 31.4911 2.490196
-12 31.4911 2.490196
-11.55556 31.046 2.490196
-11.55556 31.4911 2.490196
-12 31.26855 2.490196
-11.55556 31.26855 2.490196
-11.33333 31.046 2.490196
-11.33333 31.26855 2.490196
-11.33333 31.4911 2.490196
-11.11111 31.046 2.490196
-11.11111 31.4911 2.490196
-11.11111 31.26855 2.490196
-5.333332 31.046 2.333333
-5.111111 31.046 2.333333
-4.888887 31.26855 2.333333
-5.111111 31.4911 2.333333
-5.333332 31.4911 2.333333
-4.888889 31.046 2.333333
-4.888889 31.4911 2.333333
-4.666668 31.046 2.333333
-4.666668 31.4911 2.333333
-4.444443 31.046 2.333333
-4.444443 31.4911 2.333333
-5.333332 31.26855 2.333333
-4.444443 31.26855 2.333333
5.111111 31.046 2.058824
5.222223 31.26855 2.058824
5.111111 31.4911 2.058824
5.333332 31.046 2.058824
5.333332 31.4911 2.058824
5.555557 31.046 2.058824
5.555557 31.4911 2.058824
5.555557 31.26855 2.058824
12.66667 31.046 2.137255
12.88889 31.046 2.137255
12.88889 31.26855 2.137255
12.88889 31.4911 2.137255
12.66667 31.4911 2.137255
13.11111 31.4911 2.137255
12.66667 31.26855 2.137255
13.11111 31.26855 2.137255
14.22222 31.046 2.098039
14.44444 31.046 2.098039
14.66667 31.26855 2.098039
14.44444 31.4911 2.098039
14.22222 31.4911 2.098039
14.66666 31.046 2.098039
14.66666 31.4911 2.098039
14.88889 31.046 2.098039
14.88889 31.4911 2.098039
15.11111 31.046 2.098039
15.11111 31.4911 2.098039
14.22222 31.26855 2.098039
15.11111 31.26855 2.098039
32.88889 31.046 2.058824
33.11111 31.046 2.058824
33.11111 31.37983 2.058824
33.11111 31.71365 2.058824
32.88889 31.71365 2.058824
33.33334 31.046 2.058824
33.33334 31.71365 2.058824
32.88889 31.26855 2.058824
33.33334 31.26855 2.058824
32.88889 31.4911 2.058824
33.33334 31.4911 2.058824
-43.77778 31.26855 3.509804
-43.55556 31.26855 3.509804
-43.55556 31.4911 3.509804
-43.55556 31.71365 3.509804
-43.77778 31.71365 3.509804
-43.33333 31.26855 3.509804
-43.33333 31.71365 3.509804
-43.77778 31.4911 3.509804
-43.33333 31.4911 3.509804
-41.77778 31.26855 3.470589
-41.55556 31.26855 3.470589
-41.44444 31.4911 3.470589
-41.55556 31.71365 3.470589
-41.77778 31.71365 3.470589
-41.33333 31.26855 3.470589
-41.33333 31.71365 3.470589
-41.77778 31.4911 3.470589
-37.11111 31.26855 3.313725
-36.88889 31.26855 3.313725
-36.88889 31.60238 3.313725
-36.88889 31.9362 3.313725
-37.11111 31.9362 3.313725
-36.66667 31.26855 3.313725
-36.66667 31.9362 3.313725
-37.11111 31.4911 3.313725
-36.66667 31.4911 3.313725
-37.11111 31.71365 3.313725
-36.66667 31.71365 3.313725
-30.22222 31.26855 3.039216
-30 31.26855 3.039216
-30 31.4911 3.039216
-30 31.71365 3.039216
-30.22222 31.71365 3.039216
-29.77778 31.26855 3.039216
-29.77778 31.71365 3.039216
-30.22222 31.4911 3.039216
-29.77778 31.4911 3.039216
-18.22222 31.26855 2.647059
-18 31.26855 2.647059
-18 31.4911 2.647059
-18 31.71365 2.647059
-18.22222 31.71365 2.647059
-17.77778 31.26855 2.647059
-17.77778 31.71365 2.647059
-18.22222 31.4911 2.647059
-17.77778 31.4911 2.647059
-0.4444427 31.26855 2.176471
-0.2222214 31.26855 2.176471
-0.2222214 31.60238 2.176471
-0.2222214 31.9362 2.176471
-0.4444427 31.9362 2.176471
0 31.26855 2.176471
0 31.9362 2.176471
-0.4444427 31.4911 2.176471
0 31.4911 2.176471
-0.4444427 31.71365 2.176471
0 31.71365 2.176471
8 31.26855 2.058824
8.222221 31.26855 2.058824
8.222221 31.4911 2.058824
8.222221 31.71365 2.058824
8 31.71365 2.058824
8.444443 31.26855 2.058824
8.444443 31.71365 2.058824
8 31.4911 2.058824
8.444443 31.4911 2.058824
-46.66667 31.4911 3.588235
-46.44444 31.4911 3.588235
-46.44444 31.71365 3.588235
-46.44444 31.9362 3.588235
-46.66667 31.9362 3.588235
-46.22222 31.4911 3.588235
-46.22222 31.9362 3.588235
-46.66667 31.71365 3.588235
-46.22222 31.71365 3.588235
-32.44444 31.4911 3.117647
-32.22222 31.4911 3.117647
-32.11111 31.71365 3.117647
-32.22222 31.9362 3.117647
-32.44444 31.9362 3.117647
-32 31.4911 3.117647
-32 31.9362 3.117647
-31.77778 31.4911 3.117647
-31.77778 31.9362 3.117647
-32.44444 31.71365 3.117647
-31.77778 31.71365 3.117647
-25.55556 31.4911 2.882353
-25.33333 31.4911 2.882353
-25.33333 31.71365 2.882353
-25.33333 31.9362 2.882353
-25.55556 31.9362 2.882353
-25.11111 31.4911 2.882353
-25.11111 31.9362 2.882353
-25.55556 31.71365 2.882353
-25.11111 31.71365 2.882353
0.2222214 31.4911 2.137255
0.4444427 31.4911 2.137255
0.4444447 31.71365 2.137255
0.4444427 31.9362 2.137255
0.2222214 31.9362 2.137255
0.2222214 31.71365 2.137255
2 31.4911 2.098039
2.222221 31.4911 2.098039
2.222221 31.71365 2.098039
2.222221 31.9362 2.098039
2 31.9362 2.098039
2.444443 31.4911 2.098039
2.444443 31.9362 2.098039
2 31.71365 2.098039
2.444443 31.71365 2.098039
3.555557 31.4911 2.058824
3.777779 31.4911 2.058824
3.777779 31.71365 2.058824
3.777779 31.9362 2.058824
3.555557 31.9362 2.058824
3.555557 31.71365 2.058824
9.111111 31.4911 2.058824
9.333332 31.4911 2.058824
9.333334 31.71365 2.058824
9.333332 31.9362 2.058824
9.111111 31.9362 2.058824
9.555557 31.4911 2.058824
9.555557 31.9362 2.058824
9.111111 31.71365 2.058824
9.555557 31.71365 2.058824
18.66666 31.71365 2.019608
18.66666 31.9362 2.019608
18.44444 31.9362 2.019608
18.88889 31.9362 2.019608
18.44444 31.71365 2.019608
18.88889 31.71365 2.019608
23.33334 31.4911 1.980392
23.55556 31.4911 1.980392
23.77778 31.71365 1.980392
23.55556 31.9362 1.980392
23.33334 31.9362 1.980392
23.77778 31.4911 1.980392
23.77778 31.9362 1.980392
24 31.4911 1.980392
24 31.9362 1.980392
24.22222 31.4911 1.980392
24.22222 31.9362 1.980392
23.33334 31.71365 1.980392
24.22222 31.71365 1.980392
25.77778 31.4911 1.980392
25.77778 31.71365 1.980392
25.77778 31.9362 1.980392
26 31.4911 1.980392
26 31.9362 1.980392
26 31.71365 1.980392
26.22222 31.4911 1.980392
26.22222 31.71365 1.980392
26.22222 31.9362 1.980392
26.44444 31.4911 1.980392
26.44444 31.9362 1.980392
26.44444 31.71365 1.980392
26.66666 31.4911 1.980392
26.66666 31.71365 1.980392
26.66666 31.9362 1.980392
26.88889 31.4911 1.980392
26.88889 31.9362 1.980392
26.88889 31.71365 1.980392
27.11111 31.4911 1.980392
27.11111 31.71365 1.980392
27.11111 31.9362 1.980392
27.33334 31.4911 1.980392
49.33334 31.4911 2.098039
49.33334 31.71365 2.098039
49.33334 31.9362 2.098039
49.55556 31.4911 2.098039
49.55556 31.9362 2.098039
49.55556 31.71365 2.098039
-46 31.71365 3.588235
-45.88889 31.9362 3.588235
-46 32.15875 3.588235
-46.22222 32.15875 3.588235
-45.77778 31.71365 3.588235
-45.77778 32.15875 3.588235
-45.55556 31.71365 3.588235
-45.55556 32.15875 3.588235
-45.55556 31.9362 3.588235
-38 31.71365 3.313725
-37.77778 31.71365 3.313725
-37.55556 31.9362 3.313725
-37.77778 32.15875 3.313725
-38 32.15875 3.313725
-37.55556 31.71365 3.313725
-37.55556 32.15875 3.313725
-37.33333 31.71365 3.313725
-37.33333 32.15875 3.313725
-37.11111 32.15875 3.313725
-38 31.9362 3.313725
-24.22222 31.71365 2.843137
-24 31.71365 2.843137
-24 32.04748 2.843137
-24 32.3813 2.843137
-24.22222 32.3813 2.843137
-23.77778 31.71365 2.843137
-23.77778 32.3813 2.843137
-24.22222 31.9362 2.843137
-23.77778 31.9362 2.843137
-24.22222 32.15875 2.843137
-23.77778 32.15875 2.843137
-23.55556 31.71365 2.803922
-23.33333 31.71365 2.803922
-23.33333 31.9362 2.803922
-23.33333 32.15875 2.803922
-23.55556 32.15875 2.803922
-23.55556 31.9362 2.803922
-17.11111 31.71365 2.607843
-16.88889 31.71365 2.607843
-16.88889 31.9362 2.607843
-16.88889 32.15875 2.607843
-17.11111 32.15875 2.607843
-16.66667 31.71365 2.607843
-16.66667 32.15875 2.607843
-17.11111 31.9362 2.607843
-16.66667 31.9362 2.607843
-5.777779 31.71365 2.254902
-5.555557 31.71365 2.254902
-5.555555 31.9362 2.254902
-5.555557 32.15875 2.254902
-5.777779 32.15875 2.254902
-5.333332 31.71365 2.254902
-5.333332 32.15875 2.254902
-5.777779 31.9362 2.254902
-5.333332 31.9362 2.254902
-5.111111 31.71365 2.254902
-5.111111 31.9362 2.254902
-5.111111 32.15875 2.254902
-4.888889 31.71365 2.254902
-4.888889 32.15875 2.254902
-4.888889 31.9362 2.254902
-4.666668 31.71365 2.254902
-4.666666 31.9362 2.254902
-4.666668 32.15875 2.254902
-4.444443 31.71365 2.254902
-4.444443 32.15875 2.254902
-4.444443 31.9362 2.254902
6.666668 31.71365 2.019608
7.111111 31.9362 2.019608
6.666668 32.15875 2.019608
6.888889 31.71365 2.019608
6.888889 32.15875 2.019608
7.111111 31.71365 2.019608
7.111111 32.15875 2.019608
7.333332 31.71365 2.019608
7.555557 31.71365 2.019608
7.777779 31.71365 2.019608
7.777779 31.9362 2.019608
14.88889 31.71365 2.019608
15.11111 31.71365 2.019608
15.33333 31.9362 2.019608
15.11111 32.15875 2.019608
14.88889 32.15875 2.019608
15.33334 31.71365 2.019608
15.33334 32.15875 2.019608
15.55556 31.71365 2.019608
15.55556 32.15875 2.019608
15.77778 31.71365 2.019608
15.77778 32.15875 2.019608
14.88889 31.9362 2.019608
15.77778 31.9362 2.019608
18 31.71365 2.019608
18.22222 31.71365 2.019608
18.22222 31.9362 2.019608
18.22222 32.15875 2.019608
18 32.15875 2.019608
18.44444 32.15875 2.019608
18 31.9362 2.019608
19.11111 31.71365 1.980392
19.33334 31.71365 1.980392
19.33334 31.9362 1.980392
19.33334 32.15875 1.980392
19.11111 32.15875 1.980392
19.55556 31.71365 1.980392
19.55556 32.15875 1.980392
19.11111 31.9362 1.980392
19.55556 31.9362 1.980392
19.77778 31.71365 1.980392
19.77778 31.9362 1.980392
19.77778 32.15875 1.980392
20 31.71365 1.980392
20 32.15875 1.980392
20 31.9362 1.980392
20.22222 31.71365 1.980392
20.22222 31.9362 1.980392
20.22222 32.15875 1.980392
20.44444 31.71365 1.980392
20.44444 32.15875 1.980392
20.44444 31.9362 1.980392
20.66666 31.71365 1.980392
20.66666 31.9362 1.980392
20.66666 32.15875 1.980392
20.88889 31.71365 1.980392
20.88889 32.15875 1.980392
20.88889 31.9362 1.980392
30.66666 31.71365 2.019608
30.88889 31.71365 2.019608
30.88889 31.9362 2.019608
30.88889 32.15875 2.019608
30.66666 32.15875 2.019608
31.11111 31.71365 2.019608
31.11111 32.15875 2.019608
30.66666 31.9362 2.019608
31.11111 31.9362 2.019608
31.33334 31.71365 2.019608
31.33334 31.9362 2.019608
31.33334 32.15875 2.019608
31.55556 31.71365 2.019608
31.55556 32.15875 2.019608
31.55556 31.9362 2.019608
36.88889 31.71365 2.058824
37.11111 31.71365 2.058824
37.11111 31.9362 2.058824
37.11111 32.15875 2.058824
36.88889 32.15875 2.058824
37.33334 31.71365 2.058824
36.88889 31.9362 2.058824
44.22222 31.71365 2.058824
44.44444 31.71365 2.058824
44.77778 31.9362 2.058824
44.66666 31.71365 2.058824
44.88889 31.71365 2.058824
45.11111 31.71365 2.058824
45.33334 31.71365 2.058824
44.22222 31.9362 2.058824
45.33334 31.9362 2.058824
47.11111 31.9362 2.058824
47.11111 32.15875 2.058824
46.88889 32.15875 2.058824
47.33334 32.15875 2.058824
46.88889 31.9362 2.058824
47.33334 31.9362 2.058824
-44.88889 31.9362 3.54902
-44.66666 32.27003 3.54902
-44.66667 32.60386 3.54902
-44.88889 32.60386 3.54902
-44.44444 32.60386 3.54902
-44.88889 32.15875 3.54902
-44.44444 32.15875 3.54902
-44.88889 32.3813 3.54902
-44.44444 32.3813 3.54902
-32.66666 31.9362 3.117647
-32.44444 32.15875 3.117647
-32.44444 32.3813 3.117647
-32.66666 32.3813 3.117647
-32.22222 32.3813 3.117647
-32.66666 32.15875 3.117647
-32.22222 32.15875 3.117647
-3.555557 31.9362 2.215686
-3.333332 31.9362 2.215686
-3.333334 32.15875 2.215686
-3.555557 32.15875 2.215686
3.333332 31.9362 2.058824
3.555555 32.15875 2.058824
3.555557 32.3813 2.058824
3.333332 32.3813 2.058824
3.777779 32.3813 2.058824
3.333332 32.15875 2.058824
3.777779 32.15875 2.058824
8.222221 31.9362 2.019608
8.444443 31.9362 2.019608
8.555555 32.15875 2.019608
8.444443 32.3813 2.019608
8.666668 31.9362 2.019608
8.666668 32.3813 2.019608
8.888889 31.9362 2.019608
8.888889 32.3813 2.019608
8.888889 32.15875 2.019608
22.44444 31.9362 1.941176
22.66666 31.9362 1.941176
22.66666 32.27003 1.941176
22.66666 32.60386 1.941176
22.44444 32.60386 1.941176
22.88889 31.9362 1.941176
22.88889 32.60386 1.941176
22.44444 32.15875 1.941176
22.88889 32.15875 1.941176
22.44444 32.3813 1.941176
22.88889 32.3813 1.941176
-46 32.38131 3.588235
-46 32.60386 3.588235
-46.22222 32.60386 3.588235
-45.77778 32.60386 3.588235
-46.22222 32.3813 3.588235
-45.77778 32.3813 3.588235
-40.22222 32.15875 3.392157
-40 32.15875 3.392157
-40 32.38131 3.392157
-40 32.60386 3.392157
-40.22222 32.60386 3.392157
-39.77778 32.15875 3.392157
-39.77778 32.60386 3.392157
-40.22222 32.3813 3.392157
-39.77778 32.3813 3.392157
-39.33333 32.15875 3.352942
-39.11111 32.15875 3.352942
-39.11111 32.38131 3.352942
-39.11111 32.60386 3.352942
-39.33333 32.60386 3.352942
-38.88889 32.15875 3.352942
-38.88889 32.60386 3.352942
-39.33333 32.3813 3.352942
-38.88889 32.3813 3.352942
-27.33333 32.15875 2.882353
-27.11111 32.15875 2.882353
-27.11111 32.38131 2.882353
-27.11111 32.60386 2.882353
-27.33333 32.60386 2.882353
-26.88889 32.15875 2.882353
-26.88889 32.60386 2.882353
-27.33333 32.3813 2.882353
-26.88889 32.3813 2.882353
-0.4444427 32.15875 2.137255
-0.2222214 32.15875 2.137255
-0.2222214 32.38131 2.137255
-0.2222214 32.60386 2.137255
-0.4444427 32.60386 2.137255
0 32.15875 2.137255
0 32.60386 2.137255
-0.4444427 32.3813 2.137255
0 32.3813 2.137255
2.444443 32.15875 2.058824
2.666668 32.15875 2.058824
2.666666 32.38131 2.058824
2.888889 32.15875 2.058824
2.444443 32.3813 2.058824
2.888889 32.3813 2.058824
6.666666 32.60386 2.019608
6.666668 33.04896 2.019608
6.444443 33.04896 2.019608
6.888889 33.04896 2.019608
6.888889 32.3813 2.019608
6.444443 32.60386 2.019608
6.888889 32.60386 2.019608
6.444443 32.82641 2.019608
6.888889 32.82641 2.019608
16.88889 32.15875 1.980392
17.11111 32.15875 1.980392
17.11111 32.38131 1.980392
17.11111 32.60386 1.980392
16.88889 32.60386 1.980392
17.33334 32.15875 1.980392
17.33334 32.60386 1.980392
16.88889 32.3813 1.980392
17.33334 32.3813 1.980392
23.11111 32.15875 1.941176
23.77777 32.38131 1.941176
23.11111 32.60386 1.941176
23.33334 32.15875 1.941176
23.33334 32.60386 1.941176
23.55556 32.15875 1.941176
23.55556 32.60386 1.941176
23.77778 32.15875 1.941176
23.77778 32.60386 1.941176
24 32.15875 1.941176
24 32.60386 1.941176
24.22222 32.15875 1.941176
24.22222 32.60386 1.941176
24.44444 32.15875 1.941176
24.44444 32.60386 1.941176
24.66666 32.15875 1.941176
24.66666 32.60386 1.941176
24.66666 32.3813 1.941176
28.44444 32.15875 1.980392
28.44444 32.38131 1.980392
28.44444 32.60386 1.980392
28.22222 32.60386 1.980392
28.66666 32.15875 1.980392
28.66666 32.60386 1.980392
28.66666 32.3813 1.980392
29.55556 32.15875 1.980392
29.77778 32.15875 1.980392
29.77778 32.38131 1.980392
29.77778 32.60386 1.980392
29.55556 32.60386 1.980392
30 32.15875 1.980392
30 32.60386 1.980392
29.55556 32.3813 1.980392
30 32.3813 1.980392
33.77778 32.15875 2.019608
34 32.15875 2.019608
34.44445 32.38131 2.019608
34 32.60386 2.019608
33.77778 32.60386 2.019608
34.22222 32.15875 2.019608
34.22222 32.60386 2.019608
34.44444 32.15875 2.019608
34.44444 32.60386 2.019608
34.66666 32.15875 2.019608
34.66666 32.60386 2.019608
34.88889 32.15875 2.019608
34.88889 32.60386 2.019608
35.11111 32.15875 2.019608
35.11111 32.60386 2.019608
33.77778 32.3813 2.019608
35.11111 32.3813 2.019608
35.55556 32.15875 2.019608
35.77778 32.15875 2.019608
36.11111 32.38131 2.019608
35.77778 32.60386 2.019608
35.55556 32.60386 2.019608
36 32.15875 2.019608
36 32.60386 2.019608
36.22222 32.15875 2.019608
36.22222 32.60386 2.019608
36.44444 32.15875 2.019608
36.44444 32.60386 2.019608
36.66666 32.15875 2.019608
36.66666 32.60386 2.019608
35.55556 32.3813 2.019608
36.66666 32.3813 2.019608
46 32.15875 2.058824
46 32.38131 2.058824
46.22222 32.15875 2.058824
46.22222 32.3813 2.058824
-34.88889 32.3813 3.196078
-34.66667 32.3813 3.196078
-34.66666 32.60386 3.196078
-34.66667 32.82641 3.196078
-34.88889 32.82641 3.196078
-34.44444 32.3813 3.196078
-34.44444 32.82641 3.196078
-34.88889 32.60386 3.196078
-34.44444 32.60386 3.196078
-12.44444 32.3813 2.411765
-12.22222 32.3813 2.411765
-12.22222 32.60386 2.411765
-12.22222 32.82641 2.411765
-12.44444 32.82641 2.411765
-12 32.3813 2.411765
-12 32.82641 2.411765
-12.44444 32.60386 2.411765
-12 32.60386 2.411765
-11.77778 32.3813 2.411765
-11.77778 32.60386 2.411765
-11.77778 32.82641 2.411765
-11.55556 32.3813 2.411765
-11.55556 32.82641 2.411765
-11.55556 32.60386 2.411765
-8.222221 32.3813 2.333333
-8 32.3813 2.333333
-8 32.71513 2.333333
-8 33.04896 2.333333
-8.222221 33.04896 2.333333
-7.777779 32.3813 2.333333
-7.777779 33.04896 2.333333
-8.222221 32.60386 2.333333
-7.777779 32.60386 2.333333
-8.222221 32.82641 2.333333
-7.777779 32.82641 2.333333
8.444445 32.60386 2.019608
8.444443 32.82641 2.019608
8.666668 32.82641 2.019608
8.666668 32.60386 2.019608
15.77778 32.3813 1.980392
16 32.3813 1.980392
16 32.71513 1.980392
16 33.04896 1.980392
15.77778 33.04896 1.980392
16.22222 32.3813 1.980392
16.22222 33.04896 1.980392
15.77778 32.60386 1.980392
16.22222 32.60386 1.980392
15.77778 32.82641 1.980392
16.22222 32.82641 1.980392
25.33334 32.3813 1.941176
25.55556 32.3813 1.941176
25.55556 32.60386 1.941176
25.55556 32.82641 1.941176
25.33334 32.82641 1.941176
25.33334 32.60386 1.941176
36.88889 32.3813 2.019608
36.88889 32.60386 2.019608
36.88889 32.82641 2.019608
36.66666 32.82641 2.019608
37.11111 32.3813 2.019608
37.11111 32.82641 2.019608
37.11111 32.60386 2.019608
-48 32.60386 3.627451
-47.77778 32.82641 3.627451
-48 32.82641 3.627451
-47.55556 32.82641 3.627451
-32.66666 32.60386 3.078431
-32.44444 32.60386 3.078431
-32.33333 32.82641 3.078431
-32.44444 33.04896 3.078431
-32.66666 33.04896 3.078431
-32.22222 32.60386 3.078431
-32.22222 33.04896 3.078431
-32 32.60386 3.078431
-32 33.04896 3.078431
-32.66666 32.82641 3.078431
-32 32.82641 3.078431
-8.888889 32.60386 2.333333
-8.666668 32.60386 2.333333
-8.555555 32.82641 2.333333
-8.666668 33.04896 2.333333
-8.888889 33.04896 2.333333
-8.444443 32.60386 2.333333
-8.444443 33.04896 2.333333
-8.888889 32.82641 2.333333
-2.333334 32.82641 2.215686
-2.444443 33.04896 2.215686
-2.666668 33.04896 2.215686
-2.222221 33.04896 2.215686
-2 32.60386 2.215686
-2 33.04896 2.215686
-2.666668 32.82641 2.215686
-2 32.82641 2.215686
-1.333332 32.60386 2.137255
-1.111111 32.60386 2.137255
-0.8888874 32.82641 2.137255
-1.111111 33.04896 2.137255
-1.333332 33.04896 2.137255
-0.8888893 32.60386 2.137255
-0.8888893 33.04896 2.137255
-0.6666679 32.60386 2.137255
-0.6666679 33.04896 2.137255
-0.4444427 33.04896 2.137255
-1.333332 32.82641 2.137255
-0.4444427 32.82641 2.137255
7.111111 32.60386 2.019608
7.111111 32.82641 2.019608
7.111111 33.04896 2.019608
16.44444 32.60386 1.980392
16.44444 32.82641 1.980392
16.44444 33.04896 1.980392
16.66666 32.60386 1.980392
16.66666 33.04896 1.980392
16.66666 32.82641 1.980392
27.33334 32.60386 1.941176
27.33334 32.82641 1.941176
27.33334 33.04896 1.941176
27.55556 32.60386 1.941176
27.55556 33.04896 1.941176
27.55556 32.82641 1.941176
30 32.82641 1.980392
30 33.04896 1.980392
29.77778 33.04896 1.980392
29.77778 32.82641 1.980392
32 32.60386 1.980392
32.22222 32.60386 1.980392
32.22222 32.82641 1.980392
32.22222 33.04896 1.980392
32 33.04896 1.980392
32.44444 32.60386 1.980392
32.44444 33.04896 1.980392
32 32.82641 1.980392
32.44444 32.82641 1.980392
36.44444 32.82641 2.019608
36.44444 33.04896 2.019608
36.22222 33.04896 2.019608
36.66666 33.04896 2.019608
36.22222 32.82641 2.019608
39.11111 32.60386 2.058824
39.22222 32.82641 2.058824
39.11111 33.04896 2.058824
38.88889 33.04896 2.058824
39.33334 32.60386 2.058824
39.33334 33.04896 2.058824
-45.77778 32.82641 3.54902
-45.55556 32.82641 3.54902
-45.55556 33.38279 3.54902
-45.55556 33.93917 3.54902
-45.77778 33.93917 3.54902
-45.33333 32.82641 3.54902
-45.33333 33.93917 3.54902
-45.77778 33.04896 3.54902
-45.33333 33.04896 3.54902
-45.77778 33.27151 3.54902
-45.33333 33.27151 3.54902
-45.77778 33.49406 3.54902
-45.33333 33.49406 3.54902
-45.77778 33.71661 3.54902
-45.33333 33.71661 3.54902
-41.77778 32.82641 3.392157
-41.55556 32.82641 3.392157
-41.44444 33.04896 3.392157
-41.55556 33.27151 3.392157
-41.77778 33.27151 3.392157
-41.33333 32.82641 3.392157
-41.33333 33.27151 3.392157
-41.11111 32.82641 3.392157
-41.11111 33.27151 3.392157
-41.77778 33.04896 3.392157
-41.11111 33.04896 3.392157
-38 32.82641 3.274509
-37.77778 32.82641 3.274509
-37.77778 33.04896 3.274509
-37.77778 33.27151 3.274509
-38 33.27151 3.274509
-37.55556 32.82641 3.274509
-37.55556 33.27151 3.274509
-38 33.04896 3.274509
-37.55556 33.04896 3.274509
-35.77778 32.82641 3.196078
-35.55556 32.82641 3.196078
-35.44444 33.04896 3.196078
-35.55556 33.27151 3.196078
-35.77778 33.27151 3.196078
-35.33333 32.82641 3.196078
-35.33333 33.27151 3.196078
-35.11111 32.82641 3.196078
-35.11111 33.27151 3.196078
-35.77778 33.04896 3.196078
-35.11111 33.04896 3.196078
-31.11111 32.82641 3
-30.88889 32.82641 3
-30.88889 33.27151 3
-30.88889 33.71661 3
-31.11111 33.71661 3
-30.66667 32.82641 3
-30.66667 33.71661 3
-31.11111 33.04896 3
-30.66667 33.04896 3
-31.11111 33.27151 3
-30.66667 33.27151 3
-31.11111 33.49406 3
-30.66667 33.49406 3
14.22222 32.82641 1.980392
14.44444 32.82641 1.980392
14.44444 33.27151 1.980392
14.44444 33.71661 1.980392
14.22222 33.71661 1.980392
14.66666 33.71661 1.980392
14.22222 33.04896 1.980392
14.22222 33.27151 1.980392
14.22222 33.49406 1.980392
21.33334 32.82641 1.941176
21.33334 33.27151 1.941176
21.33334 33.71661 1.941176
21.11111 33.71661 1.941176
21.55556 33.71661 1.941176
22.44444 32.82641 1.901961
22.66666 32.82641 1.901961
22.77778 33.04896 1.901961
22.88889 32.82641 1.901961
23.11111 32.82641 1.901961
22.44444 33.04896 1.901961
23.11111 33.04896 1.901961
24.66666 32.82641 1.901961
24.88889 32.82641 1.901961
24.88889 33.04896 1.901961
25.11111 32.82641 1.901961
24.66666 33.04896 1.901961
25.11111 33.04896 1.901961
27.77778 32.82641 1.941176
28.55556 33.04896 1.941176
27.77778 33.27151 1.941176
27.55556 33.27151 1.941176
28 32.82641 1.941176
28 33.27151 1.941176
28.22222 32.82641 1.941176
28.22222 33.27151 1.941176
28.44444 32.82641 1.941176
28.44444 33.27151 1.941176
28.66666 32.82641 1.941176
28.66666 33.27151 1.941176
28.88889 32.82641 1.941176
28.88889 33.27151 1.941176
29.11111 32.82641 1.941176
29.11111 33.27151 1.941176
29.33334 32.82641 1.941176
29.33334 33.27151 1.941176
29.55556 32.82641 1.941176
29.55556 33.27151 1.941176
29.55556 33.04896 1.941176
-26.44444 33.04896 2.882353
-26.22222 33.04896 2.882353
-26.22222 33.27151 2.882353
-26.22222 33.49406 2.882353
-26.44444 33.49406 2.882353
-26 33.04896 2.882353
-26 33.49406 2.882353
-26.44444 33.27151 2.882353
-26 33.27151 2.882353
-23.11111 33.04896 2.803922
-23.11111 33.27151 2.803922
-23.11111 33.49406 2.803922
-22.88889 33.04896 2.803922
-22.88889 33.49406 2.803922
-22.88889 33.27151 2.803922
-18 33.04896 2.607843
-17.77778 33.04896 2.607843
-17.77778 33.27151 2.607843
-17.77778 33.49406 2.607843
-18 33.49406 2.607843
-17.55556 33.04896 2.607843
-17.55556 33.49406 2.607843
-18 33.27151 2.607843
-17.55556 33.27151 2.607843
-10.88889 33.04896 2.372549
-10.88889 33.38279 2.372549
-10.88889 33.71661 2.372549
-10.66667 33.04896 2.372549
-10.66667 33.71661 2.372549
-10.66667 33.27151 2.372549
-10.66667 33.49406 2.372549
1.555557 33.04896 2.058824
1.777779 33.04896 2.058824
1.777779 33.38279 2.058824
1.555557 33.27151 2.058824
1.555557 33.49406 2.058824
8.666668 33.04896 1.980392
8.888889 33.04896 1.980392
9.222223 33.27151 1.980392
8.888889 33.49406 1.980392
8.666668 33.49406 1.980392
9.111111 33.04896 1.980392
9.111111 33.49406 1.980392
9.333332 33.04896 1.980392
9.333332 33.49406 1.980392
9.555557 33.04896 1.980392
9.555557 33.49406 1.980392
9.777779 33.04896 1.980392
9.777779 33.49406 1.980392
8.666668 33.27151 1.980392
9.777779 33.27151 1.980392
-36 33.27151 3.196078
-35.77778 33.49406 3.196078
-35.77778 33.71661 3.196078
-36 33.71661 3.196078
-35.55556 33.71661 3.196078
-36 33.49406 3.196078
-35.55556 33.49406 3.196078
-33.55556 33.27151 3.078431
-33.33334 33.27151 3.078431
-33.33334 33.49406 3.078431
-33.33334 33.71661 3.078431
-33.55556 33.71661 3.078431
-33.11111 33.27151 3.078431
-33.11111 33.71661 3.078431
-33.55556 33.49406 3.078431
-33.11111 33.49406 3.078431
-1.777779 33.27151 2.137255
-1.555557 33.27151 2.137255
-1.555555 33.49406 2.137255
-1.555557 33.71661 2.137255
-1.777779 33.71661 2.137255
-1.333332 33.27151 2.137255
-1.333332 33.71661 2.137255
-1.777779 33.49406 2.137255
-1.333332 33.49406 2.137255
18.66666 33.27151 1.901961
18.88889 33.27151 1.901961
18.88889 33.60534 1.901961
18.66666 33.49406 1.901961
18.66666 33.71661 1.901961
28 33.60534 1.941176
27.77778 33.49406 1.941176
28.22222 33.49406 1.941176
27.77778 33.71661 1.941176
28.22222 33.71661 1.941176
47.77778 33.27151 2.058824
48 33.27151 2.058824
48 33.49406 2.058824
48 33.71661 2.058824
47.77778 33.71661 2.058824
48.22222 33.27151 2.058824
48.22222 33.71661 2.058824
47.77778 33.49406 2.058824
48.22222 33.49406 2.058824
-47.11111 33.49406 3.588235
-46.88889 33.71662 3.588235
-46.88889 33.93917 3.588235
-47.11111 33.93917 3.588235
-46.66667 33.93917 3.588235
-47.11111 33.71661 3.588235
-46.66667 33.71661 3.588235
20.44444 33.82789 1.941176
20.44444 34.16172 1.941176
20.22222 34.16172 1.941176
20.66666 34.16172 1.941176
20.22222 33.71661 1.941176
20.66666 33.71661 1.941176
20.22222 33.93917 1.941176
20.66666 33.93917 1.941176
26.44444 33.49406 1.901961
26.44444 33.71662 1.901961
26.44444 33.93917 1.901961
26.66666 33.49406 1.901961
26.66666 33.93917 1.901961
26.66666 33.71661 1.901961
-46.22222 33.71661 3.54902
-46 33.71661 3.54902
-46 33.93917 3.54902
-46 34.16172 3.54902
-46.22222 34.16172 3.54902
-45.77778 34.16172 3.54902
-46.22222 33.93917 3.54902
-40.22222 33.71661 3.313725
-40 33.71661 3.313725
-40 33.93917 3.313725
-40 34.16172 3.313725
-40.22222 34.16172 3.313725
-39.77778 33.71661 3.313725
-39.77778 34.16172 3.313725
-40.22222 33.93917 3.313725
-39.77778 33.93917 3.313725
-38.88889 33.71661 3.274509
-38.66667 33.71661 3.274509
-38.66666 33.93917 3.274509
-38.66667 34.16172 3.274509
-38.88889 34.16172 3.274509
-38.44444 33.71661 3.274509
-38.44444 34.16172 3.274509
-38.88889 33.93917 3.274509
-38.44444 33.93917 3.274509
5.555557 33.71661 1.980392
5.777779 33.71661 1.980392
5.777779 33.93917 1.980392
5.777779 34.16172 1.980392
-34.88889 33.93917 3.117647
-34.66667 33.93917 3.117647
-34.66666 34.16172 3.117647
-34.66667 34.38427 3.117647
-34.88889 34.38427 3.117647
-34.44444 33.93917 3.117647
-34.44444 34.38427 3.117647
-34.88889 34.16172 3.117647
-34.44444 34.16172 3.117647
-16.44444 33.93917 2.490196
-16.22222 33.93917 2.490196
-16.11111 34.16172 2.490196
-16.22222 34.38427 2.490196
-16.44444 34.38427 2.490196
-16 33.93917 2.490196
-16 34.38427 2.490196
-15.77778 33.93917 2.490196
-15.77778 34.38427 2.490196
-16.44444 34.16172 2.490196
-15.77778 34.16172 2.490196
-15.11111 33.93917 2.45098
-14.88889 33.93917 2.45098
-14.88889 34.16172 2.45098
-14.66667 33.93917 2.45098
-15.11111 34.16172 2.45098
-14.66667 34.16172 2.45098
-12.44444 33.93917 2.372549
-12.22222 33.93917 2.372549
-12.22222 34.273 2.372549
-12.22222 34.60683 2.372549
-12.44444 34.60683 2.372549
-12 34.60683 2.372549
-12.44444 34.16172 2.372549
-12.44444 34.38427 2.372549
-12 34.38427 2.372549
-4.777777 34.16172 2.215686
-5.111111 34.38427 2.215686
-5.333332 34.38427 2.215686
-4.888889 34.38427 2.215686
-4.666668 34.38427 2.215686
-4.444443 34.38427 2.215686
-4.222221 34.38427 2.215686
-4.222221 34.16172 2.215686
3.777779 34.273 2.019608
3.777779 34.60683 2.019608
3.555557 34.60683 2.019608
4 34.60683 2.019608
3.555557 34.16172 2.019608
4 34.16172 2.019608
3.555557 34.38427 2.019608
4 34.38427 2.019608
9.555557 33.93917 1.980392
9.777779 33.93917 1.980392
9.777779 34.16172 1.980392
9.777779 34.38427 1.980392
9.555557 34.38427 1.980392
10 33.93917 1.980392
10 34.38427 1.980392
9.555557 34.16172 1.980392
10 34.16172 1.980392
35.77778 33.93917 1.980392
36 33.93917 1.980392
36.11111 34.16172 1.980392
36.22222 33.93917 1.980392
36.44444 33.93917 1.980392
35.77778 34.16172 1.980392
36.44444 34.16172 1.980392
37.55556 33.93917 2.019608
37.77778 33.93917 2.019608
37.77778 34.16172 2.019608
37.77778 34.38427 2.019608
37.55556 34.38427 2.019608
38 33.93917 2.019608
38 34.38427 2.019608
37.55556 34.16172 2.019608
38 34.16172 2.019608
-28.44444 34.16172 2.882353
-28.22222 34.16172 2.882353
-28.22222 34.38427 2.882353
-28.22222 34.60683 2.882353
-28.44444 34.60683 2.882353
-28 34.16172 2.882353
-28 34.60683 2.882353
-28.44444 34.38427 2.882353
-28 34.38427 2.882353
-8.222221 34.16172 2.215686
-8 34.16172 2.215686
-7.888889 34.38427 2.215686
-8 34.60683 2.215686
-7.777779 34.16172 2.215686
-7.777779 34.60683 2.215686
-7.555557 34.60683 2.215686
-5.666666 34.38427 2.215686
-5.777779 34.60683 2.215686
-6 34.60683 2.215686
-5.555557 34.60683 2.215686
-5.333332 34.60683 2.215686
-6 34.38427 2.215686
-1.777779 34.16172 2.098039
-1.444445 34.38427 2.098039
-1.777779 34.60683 2.098039
-1.555557 34.16172 2.098039
-1.555557 34.60683 2.098039
-1.333332 34.16172 2.098039
-1.333332 34.60683 2.098039
-1.111111 34.16172 2.098039
-1.111111 34.60683 2.098039
-0.8888893 34.16172 2.098039
-0.8888893 34.60683 2.098039
-0.8888893 34.38427 2.098039
6.888889 34.16172 1.941176
7.111111 34.16172 1.941176
7.111111 34.38427 1.941176
7.111111 34.60683 1.941176
14.44444 34.16172 1.941176
14.66666 34.16172 1.941176
14.66666 34.49555 1.941176
14.66666 34.82938 1.941176
14.44444 34.82938 1.941176
14.88889 34.16172 1.941176
14.88889 34.82938 1.941176
14.44444 34.38427 1.941176
14.88889 34.38427 1.941176
14.44444 34.60683 1.941176
14.88889 34.60683 1.941176
26.44444 34.16172 1.941176
26.66666 34.16172 1.941176
26.66666 34.38427 1.941176
26.66666 34.60683 1.941176
26.44444 34.60683 1.941176
26.44444 34.38427 1.941176
42.44444 34.38427 2.058824
42.44444 34.60683 2.058824
42.22222 34.60683 2.058824
42.66666 34.60683 2.058824
42.22222 34.38427 2.058824
42.66666 34.38427 2.058824
-48.66667 34.38427 3.627451
-48.44444 34.38427 3.627451
-48.22222 34.60682 3.627451
-48.22222 34.38427 3.627451
-48 34.38427 3.627451
-48 34.82938 3.627451
-47.77778 34.38427 3.627451
-47.77778 34.82938 3.627451
-48.66667 34.60683 3.627451
-47.77778 34.60683 3.627451
-47.55556 34.38427 3.588235
-47.33333 34.38427 3.588235
-47.22222 34.60682 3.588235
-47.33333 34.82938 3.588235
-47.55556 34.82938 3.588235
-47.11111 34.38427 3.588235
-47.11111 34.82938 3.588235
-46.88889 34.38427 3.588235
-46.88889 34.82938 3.588235
-47.55556 34.60683 3.588235
-46.88889 34.60683 3.588235
-42.66667 34.38427 3.392157
-42.44444 34.38427 3.392157
-42.44444 34.60682 3.392157
-42.44444 34.82938 3.392157
-42.66667 34.82938 3.392157
-42.22222 34.38427 3.392157
-42.22222 34.82938 3.392157
-42.66667 34.60683 3.392157
-42.22222 34.60683 3.392157
-37.55556 34.38427 3.196078
-37.33333 34.38427 3.196078
-37.33334 34.60682 3.196078
-37.33333 34.82938 3.196078
-37.55556 34.82938 3.196078
-37.11111 34.38427 3.196078
-37.11111 34.82938 3.196078
-37.55556 34.60683 3.196078
-37.11111 34.60683 3.196078
-36.88889 34.38427 3.196078
-36.88889 34.60682 3.196078
-36.88889 34.82938 3.196078
-36.66667 34.38427 3.196078
-36.66667 34.82938 3.196078
-36.66667 34.60683 3.196078
-27.33333 34.38427 2.803922
-27.11111 34.38427 2.803922
-27.11111 34.60682 2.803922
-26.88889 34.38427 2.803922
-27.33333 34.60683 2.803922
-26.88889 34.60683 2.803922
-26.66667 34.38427 2.803922
-26.66667 34.60682 2.803922
-26.44444 34.38427 2.803922
-26.44444 34.82938 2.803922
-26.44444 34.60683 2.803922
-14.44444 34.38427 2.411765
-14.22222 34.38427 2.411765
-14.22222 34.60682 2.411765
-14.22222 34.82938 2.411765
-14.44444 34.82938 2.411765
-14 34.38427 2.411765
-14 34.82938 2.411765
-14.44444 34.60683 2.411765
-14 34.60683 2.411765
-3.111111 34.38427 2.098039
-2.888889 34.38427 2.098039
-2.888889 34.7181 2.098039
-2.888889 35.05193 2.098039
-3.111111 35.05193 2.098039
-2.666668 35.05193 2.098039
-3.111111 34.60683 2.098039
-3.111111 34.82938 2.098039
23.33334 34.60682 1.901961
23.33334 34.82938 1.901961
23.11111 34.82938 1.901961
23.55556 34.82938 1.901961
23.11111 34.60683 1.901961
23.55556 34.60683 1.901961
-45.55556 34.60683 3.509804
-45.33333 34.60683 3.509804
-45.22222 34.82938 3.509804
-45.33333 35.05193 3.509804
-45.55556 35.05193 3.509804
-45.11111 34.60683 3.509804
-45.11111 35.05193 3.509804
-44.88889 34.60683 3.509804
-44.88889 35.05193 3.509804
-45.55556 34.82938 3.509804
-44.88889 34.82938 3.509804
-25.77778 34.60683 2.803922
-25.55556 34.60683 2.803922
-25.55556 34.94065 2.803922
-25.55556 35.27448 2.803922
-25.77778 35.27448 2.803922
-25.33333 34.60683 2.803922
-25.33333 35.27448 2.803922
-25.77778 34.82938 2.803922
-25.33333 34.82938 2.803922
-25.77778 35.05193 2.803922
-25.33333 35.05193 2.803922
-16 34.60683 2.45098
-15.77778 34.60683 2.45098
-15.77778 35.1632 2.45098
-15.77778 35.71958 2.45098
-16 35.71958 2.45098
-15.55556 35.71958 2.45098
-16 34.82938 2.45098
-16 35.05193 2.45098
-16 35.27448 2.45098
-16 35.49703 2.45098
-15.55556 35.49703 2.45098
36.88889 34.60683 1.980392
36.88889 34.94065 1.980392
36.88889 35.27448 1.980392
43.11111 34.60683 2.019608
43.33334 34.60683 2.019608
43.33334 34.82938 2.019608
43.33334 35.05193 2.019608
43.11111 35.05193 2.019608
43.11111 34.82938 2.019608
44.66666 34.60683 2.019608
44.66666 34.94065 2.019608
44.66666 35.27448 2.019608
44.44444 35.27448 2.019608
44.88889 34.60683 2.019608
44.88889 35.27448 2.019608
44.88889 34.82938 2.019608
44.88889 35.05193 2.019608
-9.555557 34.82938 2.215686
-9.333332 34.82938 2.215686
-9.333334 35.1632 2.215686
-9.333332 35.49703 2.215686
-9.555557 35.49703 2.215686
-9.555557 35.05193 2.215686
-9.555557 35.27448 2.215686
-1.555557 34.82938 2.058824
-1.333332 34.82938 2.058824
-1.333334 35.05193 2.058824
-1.333332 35.27448 2.058824
-1.555557 35.27448 2.058824
-1.111111 34.82938 2.058824
-1.111111 35.27448 2.058824
-1.555557 35.05193 2.058824
-1.111111 35.05193 2.058824
-0.8888893 34.82938 2.058824
-0.8888893 35.05193 2.058824
-0.8888893 35.27448 2.058824
-0.6666679 34.82938 2.058824
-0.6666679 35.27448 2.058824
-0.6666679 35.05193 2.058824
-0.4444427 34.82938 2.058824
-0.4444447 35.05193 2.058824
-0.4444427 35.27448 2.058824
-0.2222214 34.82938 2.058824
-0.2222214 35.27448 2.058824
-0.2222214 35.05193 2.058824
3.555557 34.82938 1.980392
3.777779 34.82938 1.980392
3.777779 35.05193 1.980392
3.777779 35.27448 1.980392
3.555557 35.27448 1.980392
4 34.82938 1.980392
4 35.27448 1.980392
3.555557 35.05193 1.980392
4 35.05193 1.980392
5.555557 34.82938 1.941176
5.777779 34.82938 1.941176
5.777779 35.1632 1.941176
5.777779 35.49703 1.941176
5.555557 35.49703 1.941176
6 35.49703 1.941176
5.555557 35.05193 1.941176
5.555557 35.27448 1.941176
7.666666 35.05193 1.941176
7.555557 35.27448 1.941176
7.333332 35.27448 1.941176
7.777779 35.27448 1.941176
8 35.27448 1.941176
7.333332 35.05193 1.941176
8 35.05193 1.941176
9.111111 34.82938 1.941176
9.333332 34.82938 1.941176
9.555555 35.05193 1.941176
9.333332 35.27448 1.941176
9.111111 35.27448 1.941176
9.555557 34.82938 1.941176
9.555557 35.27448 1.941176
9.777779 34.82938 1.941176
9.777779 35.27448 1.941176
10 34.82938 1.941176
10 35.27448 1.941176
9.111111 35.05193 1.941176
10 35.05193 1.941176
21.11111 35.05193 1.901961
21.11111 35.27448 1.901961
20.88889 35.27448 1.901961
21.33334 35.27448 1.901961
20.88889 35.05193 1.901961
21.33334 35.05193 1.901961
45.77778 35.05193 2.058824
45.77778 35.27448 2.058824
45.55556 35.27448 2.058824
45.55556 35.05193 2.058824
46.88889 34.82938 2.058824
47 35.05193 2.058824
46.88889 35.27448 2.058824
47.11111 34.82938 2.058824
47.11111 35.27448 2.058824
47.33334 34.82938 2.058824
47.33334 35.27448 2.058824
47.33334 35.05193 2.058824
48 34.82938 2.058824
48.22222 34.82938 2.058824
48.22222 35.05193 2.058824
48.22222 35.27448 2.058824
48 35.27448 2.058824
48.44444 34.82938 2.058824
48.44444 35.27448 2.058824
48 35.05193 2.058824
48.44444 35.05193 2.058824
-47.11111 35.05193 3.54902
-46.88889 35.05193 3.54902
-46.88889 35.27448 3.54902
-46.88889 35.49703 3.54902
-47.11111 35.49703 3.54902
-46.66667 35.05193 3.54902
-46.66667 35.49703 3.54902
-47.11111 35.27448 3.54902
-46.66667 35.27448 3.54902
-13.77778 35.05193 2.372549
-13.55556 35.05193 2.372549
-13.55556 35.27448 2.372549
-13.55556 35.49703 2.372549
-13.77778 35.49703 2.372549
-13.33333 35.05193 2.372549
-13.33333 35.49703 2.372549
-13.77778 35.27448 2.372549
-13.33333 35.27448 2.372549
4.222221 35.05193 1.941176
4.444443 35.05193 1.941176
4.555555 35.27448 1.941176
4.666668 35.05193 1.941176
4.888889 35.05193 1.941176
4.222221 35.27448 1.941176
4.888889 35.27448 1.941176
10.22222 35.05193 1.941176
10.22222 35.27448 1.941176
10.22222 35.49703 1.941176
10 35.49703 1.941176
10.44444 35.05193 1.941176
10.44444 35.49703 1.941176
10.44444 35.27448 1.941176
26.44444 35.05193 1.901961
26.66666 35.05193 1.901961
26.66666 35.27448 1.901961
26.66666 35.49703 1.901961
26.44444 35.49703 1.901961
26.88889 35.05193 1.901961
26.88889 35.49703 1.901961
26.44444 35.27448 1.901961
26.88889 35.27448 1.901961
38.66666 35.05193 1.980392
38.66666 35.49703 1.980392
38.66666 35.94214 1.980392
38.88889 35.05193 1.980392
38.88889 35.94214 1.980392
38.88889 35.27448 1.980392
38.88889 35.49703 1.980392
38.88889 35.71958 1.980392
45.11111 35.05193 2.019608
45.11111 35.27448 2.019608
45.11111 35.49703 2.019608
44.88889 35.49703 2.019608
45.33334 35.05193 2.019608
45.33334 35.49703 2.019608
45.33334 35.27448 2.019608
47.55556 35.05193 2.058824
47.66667 35.27448 2.058824
47.55556 35.49703 2.058824
47.33334 35.49703 2.058824
47.77778 35.05193 2.058824
47.77778 35.49703 2.058824
48 35.49703 2.058824
-15.33333 35.49703 2.45098
-15.33333 35.71958 2.45098
-15.11111 35.71958 2.45098
-15.11111 35.49703 2.45098
-6.888889 35.27448 2.137255
-6.666668 35.27448 2.137255
-6.555555 35.49703 2.137255
-6.666668 35.71958 2.137255
-6.888889 35.71958 2.137255
-6.444443 35.27448 2.137255
-6.444443 35.71958 2.137255
-6.222221 35.27448 2.137255
-6.222221 35.71958 2.137255
-6.888889 35.49703 2.137255
-6.222221 35.49703 2.137255
-41.77778 35.49703 3.274509
-41.55556 35.49703 3.274509
-41.22222 35.71959 3.274509
-41.55556 35.94214 3.274509
-41.77778 35.94214 3.274509
-41.33333 35.49703 3.274509
-41.33333 35.94214 3.274509
-41.11111 35.49703 3.274509
-41.11111 35.94214 3.274509
-40.88889 35.49703 3.274509
-40.88889 35.94214 3.274509
-40.66667 35.49703 3.274509
-40.66667 35.94214 3.274509
-41.77778 35.71958 3.274509
-40.66667 35.71958 3.274509
-40.22222 35.49703 3.235294
-40 35.49703 3.235294
-40 35.71959 3.235294
-40 35.94214 3.235294
-40.22222 35.94214 3.235294
-39.77778 35.49703 3.235294
-39.77778 35.94214 3.235294
-40.22222 35.71958 3.235294
-39.77778 35.71958 3.235294
-39.11111 35.49703 3.196078
-38.88889 35.49703 3.196078
-38.88889 35.71959 3.196078
-38.88889 35.94214 3.196078
-39.11111 35.94214 3.196078
-38.66667 35.49703 3.196078
-38.66667 35.94214 3.196078
-39.11111 35.71958 3.196078
-38.66667 35.71958 3.196078
-37.77778 35.49703 3.156863
-37.55556 35.49703 3.156863
-37.55556 35.71959 3.156863
-37.55556 35.94214 3.156863
-37.77778 35.94214 3.156863
-37.33333 35.49703 3.156863
-37.33333 35.94214 3.156863
-37.77778 35.71958 3.156863
-37.33333 35.71958 3.156863
0 35.49703 2.058824
0.2222214 35.49703 2.058824
0.4444447 35.71959 2.058824
0.2222214 35.94214 2.058824
0 35.94214 2.058824
0.4444427 35.49703 2.058824
0.4444427 35.94214 2.058824
0.6666679 35.49703 2.058824
0.6666679 35.94214 2.058824
0.8888893 35.49703 2.058824
0.8888893 35.94214 2.058824
0 35.71958 2.058824
0.8888893 35.71958 2.058824
6.888889 35.49703 1.901961
7.111111 35.49703 1.901961
7.111111 35.71959 1.901961
7.111111 35.94214 1.901961
6.888889 35.71958 1.901961
12 35.49703 1.901961
12.22222 35.49703 1.901961
12.22222 35.71959 1.901961
12.22222 35.94214 1.901961
12 35.94214 1.901961
12 35.71958 1.901961
22.88889 35.49703 1.862745
22.88889 35.94213 1.862745
22.88889 36.38724 1.862745
29 35.71959 1.941176
28.88889 35.94214 1.941176
28.66666 35.94214 1.941176
29.11111 35.94214 1.941176
28.66666 35.71958 1.941176
