0.349085 -0.175714 -1.735217 1.000000
0.313107 -0.173859 -1.737588 1.000000
0.277533 -0.170518 -1.730209 1.000000
0.243284 -0.171159 -1.727723 1.000000
0.208111 -0.177786 -1.743059 1.000000
0.174085 -0.173896 -1.735920 1.000000
0.138635 -0.173246 -1.735302 1.000000
0.102863 -0.173603 -1.733575 1.000000
0.068070 -0.172148 -1.727873 1.000000
0.035468 -0.173078 -1.736701 1.000000
-0.000621 -0.174316 -1.734215 1.000000
-0.034988 -0.171565 -1.722329 1.000000
-0.072096 -0.173840 -1.735568 1.000000
-0.100909 -0.170039 -1.719334 1.000000
-0.136068 -0.170558 -1.725711 1.000000
-0.172658 -0.169106 -1.725257 1.000000
-0.209808 -0.173641 -1.734304 1.000000
-0.243934 -0.167232 -1.717091 1.000000
-0.277866 -0.170597 -1.727525 1.000000
-0.310034 -0.169001 -1.721048 1.000000
-0.353300 -0.174739 -1.740150 1.000000
0.349878 0.139594 -1.745093 1.000000
0.350653 0.106513 -1.743148 1.000000
0.350085 0.071045 -1.739721 1.000000
0.348922 0.035097 -1.742136 1.000000
0.349446 0.001126 -1.743197 1.000000
0.344987 -0.035148 -1.740773 1.000000
0.347282 -0.070062 -1.746962 1.000000
0.348713 -0.101935 -1.731292 1.000000
0.349905 -0.143329 -1.745120 1.000000
-0.351196 0.138564 -1.734860 1.000000
-0.352573 0.103619 -1.743189 1.000000
-0.350696 0.068769 -1.733633 1.000000
-0.348141 0.038568 -1.722713 1.000000
-0.345012 0.002916 -1.721889 1.000000
-0.348978 -0.034254 -1.733467 1.000000
-0.345576 -0.065934 -1.719272 1.000000
-0.345775 -0.101202 -1.724622 1.000000
-0.346343 -0.136845 -1.726381 1.000000
0.349009 0.176156 -1.749250 1.000000
0.313257 0.172898 -1.745747 1.000000
0.279001 0.173960 -1.744424 1.000000
0.244851 0.174805 -1.748407 1.000000
0.206061 0.175094 -1.742801 1.000000
0.174050 0.174477 -1.743155 1.000000
0.139137 0.175453 -1.739482 1.000000
0.103966 0.175340 -1.733513 1.000000
0.066813 0.176796 -1.740333 1.000000
0.036521 0.175671 -1.737297 1.000000
-0.003041 0.175138 -1.738837 1.000000
-0.035670 0.176393 -1.735255 1.000000
-0.070852 0.175000 -1.735663 1.000000
-0.105053 0.174401 -1.742305 1.000000
-0.139557 0.178654 -1.731667 1.000000
-0.178159 0.175036 -1.741186 1.000000
-0.210166 0.176406 -1.732957 1.000000
-0.248429 0.173775 -1.741763 1.000000
-0.277453 0.174366 -1.732947 1.000000
-0.313075 0.176302 -1.729697 1.000000
-0.351554 0.175897 -1.734907 1.000000
0.349389 -0.178792 -2.093954 1.000000
0.311521 -0.174725 -2.082831 1.000000
0.279640 -0.176131 -2.090413 1.000000
0.243772 -0.171960 -2.081190 1.000000
0.206852 -0.173103 -2.073116 1.000000
0.174287 -0.171605 -2.073552 1.000000
0.141486 -0.174372 -2.085426 1.000000
0.102228 -0.176627 -2.094529 1.000000
0.067863 -0.172703 -2.083190 1.000000
0.034248 -0.175113 -2.084000 1.000000
0.000770 -0.169386 -2.071630 1.000000
-0.037621 -0.175449 -2.083174 1.000000
-0.074360 -0.175249 -2.088959 1.000000
-0.107183 -0.166541 -2.078431 1.000000
-0.138654 -0.168503 -2.064178 1.000000
-0.172078 -0.173567 -2.075610 1.000000
-0.212432 -0.176393 -2.086906 1.000000
-0.241239 -0.168283 -2.057870 1.000000
-0.277236 -0.172859 -2.074806 1.000000
-0.313386 -0.171229 -2.081455 1.000000
-0.348015 -0.171364 -2.077101 1.000000
0.348545 0.142010 -2.087959 1.000000
0.348927 0.107071 -2.103356 1.000000
0.348582 0.067920 -2.094365 1.000000
0.348673 0.035219 -2.095636 1.000000
0.349096 0.001414 -2.080094 1.000000
0.348009 -0.033996 -2.090681 1.000000
0.347150 -0.069307 -2.091051 1.000000
0.349281 -0.105922 -2.093287 1.000000
0.347031 -0.141255 -2.095647 1.000000
-0.354673 0.135100 -2.087825 1.000000
-0.355948 0.106228 -2.088848 1.000000
-0.353576 0.071798 -2.089895 1.000000
-0.347178 0.039326 -2.069906 1.000000
-0.348457 0.002421 -2.074054 1.000000
-0.344104 -0.034150 -2.071753 1.000000
-0.348664 -0.067050 -2.078590 1.000000
-0.348527 -0.101039 -2.077986 1.000000
-0.352493 -0.139852 -2.082444 1.000000
0.348228 0.175277 -2.083250 1.000000
0.312337 0.174039 -2.091820 1.000000
0.275584 0.174882 -2.080571 1.000000
0.243069 0.174551 -2.093554 1.000000
0.209977 0.175129 -2.086808 1.000000
0.176427 0.177007 -2.079502 1.000000
0.139696 0.174798 -2.085842 1.000000
0.105094 0.175595 -2.088719 1.000000
0.067657 0.176854 -2.092076 1.000000
0.033894 0.173194 -2.097580 1.000000
-0.001790 0.176196 -2.083121 1.000000
-0.036218 0.178385 -2.085515 1.000000
-0.071785 0.174314 -2.089000 1.000000
-0.106556 0.177858 -2.092548 1.000000
-0.141440 0.176341 -2.082671 1.000000
-0.177020 0.173942 -2.093396 1.000000
-0.210133 0.175080 -2.080781 1.000000
-0.248069 0.177347 -2.091971 1.000000
-0.279395 0.175663 -2.080870 1.000000
-0.310568 0.176821 -2.078929 1.000000
-0.345502 0.173312 -2.071038 1.000000
0.349002 -0.172761 -1.766373 1.000000
0.349459 -0.176538 -1.778176 1.000000
0.347965 -0.175186 -1.807807 1.000000
0.349024 -0.175560 -1.844832 1.000000
0.348559 -0.172394 -1.873238 1.000000
0.346587 -0.174957 -1.901302 1.000000
0.347460 -0.178668 -1.949680 1.000000
0.350238 -0.173761 -1.985969 1.000000
0.347365 -0.171678 -2.006606 1.000000
0.349083 -0.174207 -2.042783 1.000000
-0.348171 -0.171317 -1.758478 1.000000
-0.346128 -0.168963 -1.757054 1.000000
-0.351152 -0.174934 -1.810567 1.000000
-0.345401 -0.170499 -1.826899 1.000000
-0.345731 -0.168844 -1.860650 1.000000
-0.347056 -0.170429 -1.898810 1.000000
-0.343047 -0.169508 -1.919763 1.000000
-0.349422 -0.169149 -1.978431 1.000000
-0.346793 -0.172156 -2.006837 1.000000
-0.344913 -0.171942 -2.033118 1.000000
0.348899 0.175696 -1.765291 1.000000
0.348771 0.174486 -1.777719 1.000000
0.348607 0.174745 -1.818465 1.000000
0.345899 0.173770 -1.847494 1.000000
0.348474 0.174839 -1.886574 1.000000
0.350855 0.175560 -1.924745 1.000000
0.349850 0.175950 -1.944155 1.000000
0.349530 0.173357 -1.994777 1.000000
0.348822 0.176366 -2.020941 1.000000
0.345568 0.174296 -2.064712 1.000000
-0.352720 0.174693 -1.778464 1.000000
-0.349166 0.175145 -1.771227 1.000000
-0.349824 0.174397 -1.801745 1.000000
-0.345884 0.174681 -1.834120 1.000000
-0.353419 0.174959 -1.887282 1.000000
-0.348799 0.179313 -1.904855 1.000000
-0.348568 0.174893 -1.948326 1.000000
-0.349048 0.174269 -1.980159 1.000000
-0.352319 0.176316 -2.011798 1.000000
-0.353738 0.175818 -2.060808 1.000000
